# .PCD v0.7 - Point Cloud Data file format
VERSION 0.7
FIELDS x y z rgb
SIZE 4 4 4 4
TYPE F F F U
COUNT 1 1 1 1
WIDTH 1087
HEIGHT 1
VIEWPOINT 0 0 0 1 0 0 0
POINTS 1087
DATA ascii
-0.049384087 0.012062072 0.24890256 7634728
-0.047403522 0.011933918 0.24962375 7437350
-0.045449387 0.012115226 0.24988355 7371553
-0.043761887 0.011462324 0.2501502 7371552
-0.050805788 0.013385829 0.24869438 7700521
-0.049408659 0.013585703 0.24976163 7239715
-0.050022591 0.015958348 0.24999556 7173666
-0.077150479 0.061837561 0.24981619 7634215
-0.075932771 0.060528807 0.25031018 7765801
-0.078411877 0.063492283 0.24955419 7371045
0.050338633 0.063841924 0.24905525 11379827
-0.079838634 0.066456199 0.24880119 7108132
0.051179934 0.065535009 0.24950565 10853989
-0.025260132 -0.0040368647 0.25046396 10264405
-0.023600671 -0.0038021803 0.25058755 10395735
-0.021363955 -0.0039620236 0.25050226 9802849
-0.033218 -0.0015479072 0.25023809 7765547
-0.03161541 -0.0015473719 0.25023782 7766314
-0.02954454 -0.0019250672 0.2506572 8226352
-0.027746091 -0.002019105 0.25076172 8686650
-0.025939938 -0.0023090686 0.2509478 9344070
-0.023563271 -0.0024907961 0.25128448 10133072
-0.021483418 -0.002498534 0.2511245 10593637
-0.019419601 -0.002016441 0.25076041 3486745
-0.032952145 -0.00053412636 0.25046971 7503142
-0.03156025 -0.0001282109 0.25056297 7503142
-0.029761419 -0.00010731712 0.25094721 8029484
-0.027800068 -0.0008083522 0.25156575 8292403
-0.025525324 -0.0014608681 0.2518363 9541191
-0.023281684 -0.0014601492 0.25183594 9409350
-0.021358576 -0.0014595343 0.25183576 11054447
-0.019467544 -0.00047903584 0.2514289 4408351
-0.017978901 -0.00015757787 0.25118613 3552300
-0.035697564 0.002472589 0.25053394 7503140
-0.033545528 0.0019132993 0.25076595 7437348
-0.031857681 0.0013635433 0.2511811 7371554
-0.029939264 0.00092684233 0.25156811 7832103
-0.028182633 0.00054896605 0.25198683 8686901
-0.019499494 0.00055177481 0.25198525 5724209
-0.017793939 0.0008677023 0.25163603 3157026
-0.037110623 0.0044661015 0.25036845 7832357
-0.035639208 0.004230184 0.25063103 7503138
-0.033839703 0.0039133364 0.2512565 7239966
-0.032013446 0.003040418 0.2517809 7634724
-0.030211901 0.0025424506 0.25182125 7897896
-0.017304802 0.00254653 0.25181925 3552554
-0.01636341 0.0035439795 0.25173783 3224104
-0.037232883 0.0064946925 0.25085559 7173914
-0.035343979 0.0053259563 0.25146797 7305501
-0.034107298 0.0048735416 0.25174201 6976537
-0.041266214 0.0084879939 0.25070125 7437344
-0.039459877 0.0079088388 0.25055921 7437087
-0.037293997 0.0075090853 0.25110227 7305500
-0.035460882 0.0068002944 0.25188974 7239709
-0.033984318 0.0065642991 0.25215176 7437086
-0.042674579 0.0099750059 0.25042522 7437345
-0.039332442 0.0088669304 0.25154334 7371039
-0.047442101 0.012475948 0.25040519 7305764
-0.04544929 0.012149815 0.25053805 7305762
-0.043253023 0.011260548 0.25106749 7371296
-0.041435204 0.011024665 0.25133049 7436833
-0.047519431 0.0134909 0.25066167 7108130
-0.04554766 0.013508854 0.25098985 7173920
-0.048992891 0.015485846 0.25052312 7042337
-0.073124781 0.057010073 0.25192478 8160041
-0.074996516 0.058621403 0.25210756 7634472
-0.073938057 0.058565922 0.25105092 8094247
-0.077052832 0.061112832 0.25189283 7239463
-0.075932652 0.060584892 0.25137022 7502888
-0.027172806 -0.0004306387 0.25239146 8489524
-0.025567526 -0.00043016684 0.25239125 9541444
-0.02312571 -0.00068033871 0.25305581 9343811
-0.021577146 -0.00039986349 0.25293982 9804630
-0.028873423 0.0015797812 0.25254646 8226604
-0.027183902 0.0011641517 0.25328469 8752180
-0.025298482 0.00087979453 0.25349095 8620341
-0.023533655 0.0010198718 0.25376159 9080637
-0.021281239 0.0010205874 0.25376138 9409872
-0.019509679 0.00092935987 0.25281376 8290132
-0.018242875 0.0015831555 0.25254482 3157790
-0.031339753 0.0031846263 0.25261101 7766309
-0.029541446 0.0028399064 0.25323519 7963687
-0.027952898 0.0026453345 0.2537533 8424494
-0.019498387 0.0031338593 0.25347143 8488021
-0.017637325 0.0029185854 0.25254416 3355682
-0.032942042 0.0053564189 0.2529763 7568929
-0.031382605 0.0047690785 0.25335732 7766564
-0.017700752 0.005164973 0.25294378 3552549
-0.035139136 0.0073277946 0.25307173 7436833
-0.033605497 0.0068427455 0.25362867 7766053
-0.017623693 0.0070507568 0.25367615 3881259
-0.037029035 0.0085925134 0.25265223 7305249
-0.035577044 0.0088810716 0.25336581 7568421
-0.017383788 0.009332668 0.25390336 4210470
-0.016353017 0.0093946289 0.25349024 3815976
-0.073435917 0.057368454 0.25365362 7436839
-0.07540679 0.059186738 0.25333324 6976547
-0.076994345 0.060677927 0.25313684 6976293
-0.026940212 0.0017163033 0.2551184 8226348
-0.025329536 0.0017168602 0.25511804 8160303
-0.02339671 0.0017174837 0.25511774 8555063
-0.021463931 0.0017010651 0.25479594 8686657
-0.029072978 0.0029931408 0.25492805 7963688
-0.027412182 0.0030228884 0.25548026 8094505
-0.025392039 0.0032554816 0.25580913 8094507
-0.023579802 0.0031546413 0.25578398 8423735
-0.021642534 0.0031211728 0.25513926 8555327
-0.020225072 0.0031889789 0.25451899 10133855
-0.031095 0.0052670799 0.25495854 7634725
-0.029432224 0.0047516702 0.25572208 7634469
-0.02804468 0.0047594155 0.2558603 7831592
-0.022864573 0.0047610546 0.25585952 8753217
-0.02149694 0.0053144712 0.25549456 8950091
-0.019516921 0.0052854419 0.25439262 6843195
-0.033388995 0.0076991809 0.25467372 7503141
-0.031885576 0.0069900481 0.25545701 7503142
-0.021315204 0.006773992 0.2560403 9082448
-0.019788686 0.0068704742 0.25515014 7501887
-0.018421737 0.0077039879 0.25467145 4342052
-0.035073273 0.0086963233 0.25460356 7239457
-0.03335315 0.0090810573 0.25555688 7437349
-0.032139853 0.0087660411 0.25590432 7108384
-0.019755151 0.0087470822 0.25546876 9147733
-0.018140594 0.0092091803 0.25472915 7237700
-0.019563977 0.010955032 0.25556007 9937245
-0.027028877 0.0037962978 0.25657848 8093992
-0.025412787 0.003796851 0.25657824 7962664
-0.023796713 0.0037974024 0.25657794 8621371
-0.030685009 0.0057903985 0.25643602 7371556
-0.029387837 0.0057908362 0.25643572 7634726
-0.027442055 0.0057913745 0.25643554 8094764
-0.025468778 0.0051383278 0.25669777 8423730
-0.023550505 0.0057926849 0.25643486 8753217
-0.022253303 0.0057931221 0.25643462 8950861
-0.031085886 0.0073126289 0.25681826 7437347
-0.029366652 0.0070808581 0.2571598 7897898
-0.027501911 0.0071674795 0.2572079 7832107
-0.025551822 0.0071681058 0.2572076 8029742
-0.023687378 0.0069721043 0.25709644 8292665
-0.021675216 0.0078059472 0.25662065 9082447
-0.032818366 0.0093077058 0.25668496 7437346
-0.031676829 0.009316707 0.2568475 7568932
-0.029346429 0.0095239682 0.25759614 7832362
-0.027621731 0.0098686572 0.25779143 7701034
-0.025663009 0.0098692644 0.25779101 8030000
-0.023339959 0.0088376477 0.25720415 8160568
-0.02173356 0.0094919316 0.2569432 8884557
-0.020406818 0.0088041993 0.25655311 9871452
-0.023742843 0.010850682 0.2574015 7898164
-0.020473029 0.010799971 0.25642186 10003038
-0.057616211 0.046682924 0.26926923 6253596
-0.045079164 0.04570416 0.2727772 7502888
-0.044388488 0.045704395 0.27277708 8884543
-0.047224116 0.046759691 0.27381375 8160819
-0.045939423 0.046749666 0.27361625 9081920
-0.043695617 0.047002103 0.27364159 9410887
-0.042403609 0.047089007 0.27369922 9805647
-0.046676133 0.048799627 0.27451408 8358199
-0.045288313 0.048781794 0.27416751 8621885
-0.043250594 0.049456388 0.27428666 9082440
-0.041818894 0.048727985 0.27312803 9805395
-0.041293491 0.051387087 0.27291036 10529119
-0.039920662 0.051715307 0.27279627 10792036
-0.039981749 0.052753873 0.27350026 10989162
-0.046676002 0.048836324 0.27520657 7832625
-0.045288183 0.048836727 0.2752063 7832372
-0.043250486 0.049493048 0.2749798 8621890
0.061695889 0.065131724 0.27969927 3880226
0.085883468 0.045196418 0.30024642 4406313
0.064384013 0.068211406 0.30005395 7959633
0.086297423 0.044680156 0.30130237 8552284
0.065454155 0.068268165 0.30112174 5195840
0.13483095 -0.0081993835 0.31280464 8883023
0.13237941 -0.007181799 0.31312606 7830086
0.1341833 -0.0071717245 0.31330559 8489025
0.1324587 -0.0070860297 0.31493774 8028978
0.13427369 -0.0070812926 0.31501606 8160307
0.1360099 -0.0070557324 0.31548834 8094771
0.13427395 -0.0069813426 0.31690645 7831854
0.13648365 -0.0069806366 0.31690603 8160816
0.098266527 0.026601207 0.31780359 6713899
0.09884052 0.028063405 0.31704423 7108398
0.11306642 0.0061634281 0.31943136 5725262
0.11221348 0.0084980056 0.31939927 6317891
0.044568811 0.064818755 0.31989121 7167557
0.15272577 -0.0088524502 0.3211785 9674056
0.15853141 -0.008750122 0.32118353 9476169
0.11228688 0.0072856108 0.32172149 7699515
0.11204326 0.0082489867 0.32100421 7436851
0.042239606 0.063388929 0.32262468 5262655
0.043012604 0.064376801 0.32236418 5657413
0.044357244 0.064591363 0.32168022 8548431
0.045275319 0.066390157 0.32255119 11305808
0.045985427 0.066390395 0.3225511 9595190
0.15826204 -0.0086553721 0.32297781 9739599
0.1602394 -0.0086618504 0.3228429 9345094
0.1503938 -0.0075571197 0.32296354 9081916
0.1523218 -0.007628487 0.32349536 10200400
0.15389742 -0.0076280129 0.32349512 9016127
0.15893945 -0.0076263682 0.32349423 10266714
0.16075161 -0.0072180801 0.3236298 9345352
0.14810187 -0.0056244126 0.32354572 8686901
0.11243948 0.0070250551 0.32310623 7173672
0.1121618 0.0087757222 0.32339022 7371300
0.096490636 0.025129102 0.32311705 6714661
0.09786427 0.025032675 0.32286304 6780193
0.042004161 0.063451007 0.32380056 5130546
0.043012828 0.064451456 0.32377726 8550742
0.044265617 0.06501624 0.32362944 11112538
0.15252183 -0.0070119356 0.32482538 9541953
0.15628336 -0.0073668081 0.32463241 9542216
0.15838508 -0.0069026425 0.32456052 10661473
0.15985201 -0.0067640059 0.32464772 10595167
0.14852391 -0.0051299422 0.32500476 8819001
0.15025382 -0.0051537962 0.32533196 9344317
0.1521903 -0.0051085092 0.32570338 9936198
0.15411001 -0.0054890634 0.32606953 9870919
0.15645689 -0.0050118519 0.32561097 10068562
0.15835574 -0.0050112396 0.32561052 11515759
0.1608516 -0.0049485411 0.32488674 9607760
0.11317478 0.00646987 0.32522848 7568164
0.11403535 0.0064871944 0.32555032 7765030
0.041709844 0.063528582 0.32527059 7498827
0.042545114 0.065133214 0.32585242 10916181
0.044071905 0.065544248 0.32550007 12097110
0.044599954 0.067090049 0.32632297 11043136
0.15057294 -0.0044704592 0.32641709 10001478
0.15238611 -0.0047987178 0.32651147 10067786
0.15411012 -0.0054556937 0.3267006 9804614
0.15627424 -0.0044686506 0.32641613 10397017
0.15817469 -0.0044680336 0.3264159 12107897
0.14846049 -0.0027601165 0.32721204 8883513
0.15047616 -0.002828578 0.32716718 9804098
0.15248375 -0.0027588168 0.32721144 10001482
0.15424347 -0.0028570339 0.32714748 10330450
0.15671957 -0.0027910224 0.3265765 11647341
0.16034846 -0.0034809872 0.32613131 10791524
0.16161753 -0.0034805685 0.32613105 10594144
0.14841279 -0.00039104329 0.32782656 8817207
0.15032625 -0.00039044122 0.32782626 9540925
0.15223959 -0.00038979729 0.32782602 9212222
0.15449956 -0.00090761768 0.32748878 10923360
0.14379677 0.0016144416 0.32790616 8489270
0.11513267 0.0055518616 0.3267951 7896363
0.11634289 0.0051848134 0.32742065 8489277
0.11751208 0.0045999074 0.32771569 7832121
0.17463873 0.045178186 0.32776701 12503450
0.17470692 0.046714194 0.32840779 13029795
0.17811102 0.048995722 0.32734475 13886134
0.18052886 0.055222303 0.32829925 15531723
0.041661482 0.065644488 0.32741109 10062414
0.042666428 0.067080483 0.32750669 12361044
0.044115283 0.066968977 0.3271924 12818265
0.1464286 0.0006454807 0.32850343 9935950
0.14866479 0.00064618018 0.3285031 8751414
0.15051652 0.0016503592 0.32854375 9014583
0.1403123 0.0032118452 0.32972986 9476683
0.14255781 0.0031871512 0.32924905 8686907
0.14448224 0.0031792971 0.32908878 9278530
0.14640701 0.0031799208 0.32908845 8949055
0.14824246 0.0030784281 0.32905188 8620343
0.11868407 0.0051729698 0.32907596 10530148
0.11979039 0.005371727 0.32967246 8621893
0.1345571 0.0047072093 0.32963875 8621367
0.13584343 0.0047075958 0.32963854 11318632
0.14259693 0.0047097951 0.32963759 8884543
0.14452654 0.0047104056 0.3296372 8884287
0.17011452 0.043749552 0.32918382 12173957
0.17021784 0.045432091 0.32943931 11253109
0.17271383 0.045725796 0.32866672 11845001
0.17374505 0.045726176 0.32866642 13357988
0.026435569 0.049227417 0.32951093 6249550
0.028185686 0.049740102 0.32972726 11052678
0.029616002 0.05076503 0.33016336 6645060
0.18083631 0.057415225 0.32999924 11583375
0.13850448 0.00375546 0.33055353 10529630
0.14043078 0.0037561331 0.33055326 10069075
0.12079626 0.0050883875 0.33062011 9147722
0.12222388 0.0053739594 0.33150357 10134879
0.12394458 0.0048056752 0.33156642 11451515
0.12909019 0.0048072287 0.33156556 7634992
0.13068123 0.005611009 0.33160537 8029487
0.13213742 0.0051894938 0.33119985 8292657
0.1344998 0.0053537153 0.33050248 8884801
0.13617398 0.0053541977 0.33050233 9937237
0.13832712 0.0057632914 0.33064961 10199895
0.14026007 0.00576388 0.33064941 10003542
0.14239499 0.0052541206 0.33046427 9015871
0.14448163 0.0053277081 0.33049038 9016385
0.14625768 0.0052553401 0.33046362 8160305
0.11919887 0.0067442032 0.33038029 7831853
0.12051232 0.0068997126 0.33120897 8884032
0.13293311 0.0071457336 0.33157659 8423991
0.13453503 0.0069485116 0.33144352 8950597
0.13662367 0.0068008648 0.33134368 10990441
0.13855962 0.006801472 0.33134353 10660961
0.14049567 0.0068020928 0.33134314 9410891
0.14243178 0.0068027014 0.33134264 8752955
0.13309528 0.0098464694 0.33215019 8884540
0.13475618 0.0094384877 0.33199865 9411147
0.13654862 0.0093369195 0.33196053 11582325
0.13849269 0.0093375118 0.33196038 10266463
0.026584236 0.051225096 0.33130753 7696991
0.028149625 0.050956585 0.33142874 11118473
0.029639529 0.051313922 0.33107454 6908242
0.026193436 0.051861733 0.33198759 5591098
0.028969133 0.051862653 0.33198714 6381647
0.029663039 0.051862847 0.33198699 6842198
0.18021406 0.057373431 0.33110702 11451789
0.18038796 0.057928573 0.33213532 10925702
0.18319345 0.059928235 0.33205909 12635805
0.12249476 0.0071878606 0.33243746 9542481
0.12457964 0.006405523 0.33341184 11252591
0.12814847 0.0070943381 0.33315933 7700275
0.13051555 0.0072584627 0.33246127 7963436
0.12234482 0.0087343203 0.33282742 9015621
0.12440325 0.0086779948 0.33377871 10397273
0.12651023 0.0079381634 0.333978 11713655
0.12871887 0.0084240222 0.33368325 8028978
0.13051991 0.0084977048 0.33317184 8226605
0.1319019 0.0088759493 0.33274162 8423728
0.12260537 0.01032024 0.33359945 10068048
0.12440829 0.010275516 0.33400542 10397269
0.1262854 0.0099469721 0.33409327 11121003
0.12830284 0.01027678 0.33400479 8950088
0.13032126 0.010595197 0.3337003 8489780
0.13255604 0.010098593 0.33313268 9608515
0.13441697 0.010289784 0.33294997 10398295
0.13671961 0.010137254 0.33289233 10858601
0.1383993 0.010393209 0.33298737 10134364
0.024845092 0.052959483 0.33381784 5789257
0.026122017 0.052314732 0.33345297 8223844
0.027928447 0.051935527 0.33337253 9407856
0.033445843 0.057977706 0.33397645 5790280
0.17856728 0.058001935 0.33353367 11451274
0.18017821 0.058006097 0.33360338 13688753
0.1264962 0.010985918 0.33480102 10068566
0.12470749 0.012398764 0.33501786 10068304
0.12844051 0.012502105 0.33505607 11121258
0.1314806 0.012979598 0.33459905 9674827
0.024825739 0.052556865 0.33567435 5986117
0.030946434 0.057099126 0.33631611 6905165
0.17438522 0.056119513 0.33583865 12765592
0.17655347 0.057103463 0.33549526 10462576
0.032745607 0.058032867 0.33502501 6908241
0.17861384 0.058220178 0.33555743 10923893
0.12502165 0.014409175 0.33642343 9543245
0.12592743 0.014579809 0.33648875 10398555
0.12639388 0.016405487 0.33719417 10464352
0.096763849 0.035139374 0.33725294 8029227
0.098452732 0.035139944 0.33725262 7568927
0.09880954 0.036591411 0.33818781 7569447
0.16836374 0.054543551 0.33763579 11055481
0.17051217 0.054763924 0.33758175 12568979
0.17237237 0.0552039 0.33747408 12963739
0.030946525 0.057135992 0.33701423 8221014
0.031019188 0.058674555 0.3377021 12168320
0.031091858 0.060213245 0.33839417 14341278
0.032170538 0.060652375 0.3372227 13487513
0.099107713 0.037241716 0.33912146 7306279
0.16714397 0.055275775 0.33886647 13358238
0.17062974 0.055276956 0.33886597 12372114
0.029897964 0.057283275 0.33980638 14797464
0.16845086 0.056338686 0.3400211 12437137
0.031043662 0.05927996 0.33968234 12434049
0.031092171 0.060324438 0.34049782 15131312
0.032195874 0.061276712 0.33956063 16645078
0.10128574 0.040351432 0.34110332 7371554
0.16740359 0.056375187 0.34071812 10792313
0.10263306 0.042455293 0.34300709 7832356
0.010735833 0.061529636 0.34448016 11712145
0.012627481 0.061119732 0.3442907 10659446
0.013891165 0.061017502 0.34424311 10657383
0.11211544 0.048700746 0.34743136 9280323
0.017015271 0.059664056 0.34703603 11250554
0.11240681 0.049763083 0.34858164 11122532
0.11432348 0.052786876 0.34894192 8424252
-0.083219811 0.016837016 0.35585842 3091233
-0.0756744 0.0086871209 0.35751909 7896880
-0.077175379 0.010849469 0.357164 7106866
-0.075946301 0.010056521 0.35636386 3092490
-0.078926876 0.013126639 0.35762808 7435578
-0.083073944 0.01626472 0.35748091 3157778
-0.075486526 0.0085964324 0.35904914 8951074
-0.077058733 0.010813943 0.35933247 8753952
-0.075945899 0.010210295 0.35927212 8885534
-0.081204146 0.013263268 0.36022657 8490307
-0.079382107 0.012982087 0.35963213 8556332
-0.081894651 0.014721789 0.35940698 5068319
-0.079028949 0.011134367 0.36161751 8096805
-0.077680811 0.010718347 0.36131701 7635217
-0.079706594 0.012626736 0.36080611 8294184
-0.082315803 0.014286978 0.36065644 7701046
-0.07556738 0.012389733 0.3734366 7503905
-0.07379961 0.012004756 0.37426126 7569955
-0.076321527 0.013985823 0.37386543 7503390
-0.071318552 0.011039007 0.37492046 7767330
-0.069391742 0.01038875 0.37523675 7438111
-0.067413941 0.010093188 0.37594694 7634978
-0.075221002 0.013029533 0.37471169 7240990
-0.073677793 0.012654166 0.37517941 7174940
-0.071706563 0.012490822 0.37586632 7766562
-0.069583446 0.012108728 0.37620273 7371806
-0.07752426 0.014523859 0.37457925 6977046
-0.075603411 0.014396538 0.37531626 6713878
-0.07371825 0.014089609 0.37581384 7174426
-0.075920165 0.016088346 0.37575018 6516756
-0.063304245 0.0085191382 0.37714469 7305757
-0.062035799 0.0081637045 0.37730268 8161068
-0.067525774 0.011135394 0.37672049 7503135
-0.06551069 0.010492387 0.3771728 7437341
-0.064181507 0.010196482 0.37788197 7437597
-0.071455687 0.012894349 0.37686712 7766565
-0.069539979 0.01259225 0.37722993 6977048
-0.067656294 0.012360142 0.3777889 7503133
-0.066340223 0.012212387 0.37814429 7569183
-0.073468223 0.014777909 0.37699249 7306528
-0.071813107 0.014582913 0.3775554 7503908
-0.070138887 0.014193845 0.37776163 7174427
-0.0751964 0.016909523 0.37707251 7109149
-0.073695511 0.016688026 0.3776091 7109151
-0.06310682 0.0092567336 0.37904057 7042840
-0.061465994 0.008375234 0.37940559 7306014
-0.065259114 0.0112386 0.37865874 7569183
-0.063893616 0.010618004 0.37953958 7371804
-0.069048554 0.01323711 0.37860149 7306781
-0.067712039 0.012924268 0.37898895 7437854
-0.070975721 0.014911664 0.37871787 7437855
-0.069599718 0.014838977 0.37913826 7503904
-0.073101655 0.017235611 0.37849256 7174173
-0.071274027 0.017022867 0.37919214 7569440
-0.061425388 0.0087153818 0.38141972 7174683
-0.06106855 0.0084869741 0.38341135 6714393
-0.06000213 0.0074786856 0.38327426 6977566
-0.033314276 0.0021200385 0.38908559 6254869
-0.031671725 0.0023985512 0.38929275 6780954
-0.029492069 0.0021548395 0.3897205 7110179
-0.027565118 0.0018247768 0.38977847 6979361
-0.037449617 0.0042455294 0.3896277 6122775
-0.035353262 0.0043194829 0.3896606 6188824
-0.033462875 0.004833071 0.38989189 6583836
-0.031508323 0.0041721514 0.39000794 6846751
-0.029573817 0.00384206 0.39006576 7373094
-0.027657177 0.0038426809 0.39006537 7242020
-0.025740534 0.0038433063 0.3900651 7570467
-0.023504447 0.0038439783 0.39006478 6583318
-0.021291543 0.0045061866 0.38994813 8294451
-0.018774778 0.0058298488 0.38971516 7571500
-0.01742579 0.0066904635 0.38974854 8952134
-0.053599283 0.0081678228 0.38995618 7635245
-0.052282836 0.0078374278 0.39001366 9017156
-0.015620683 0.0078322226 0.38968676 9741147
-0.013706348 0.008494298 0.38957047 11451263
-0.037302539 0.0048656128 0.39053127 6123033
-0.035382625 0.0048661721 0.39053106 6517789
-0.033462752 0.0048668124 0.39053065 6715421
-0.031508218 0.00420589 0.39064598 6912544
-0.02957372 0.0038757592 0.39070338 7504680
-0.027657073 0.0038763823 0.39070296 7570984
-0.025740445 0.0038770051 0.39070281 7373088
-0.023504363 0.0038776989 0.39070261 7306785
-0.021291437 0.0045399265 0.39058653 8558134
-0.039320529 0.0064040688 0.39123243 6122776
-0.03739579 0.0064046751 0.3912321 6188826
-0.035471056 0.0064052991 0.39123186 5925652
-0.0336929 0.0061493404 0.39111432 6385945
-0.031595327 0.0058934647 0.3909969 7438119
-0.029672243 0.0058940798 0.39099652 7767339
-0.027749129 0.0058946959 0.39099616 7701543
-0.025505496 0.0058954055 0.39099583 7504419
-0.023261858 0.0058961338 0.39099547 7767849
-0.021361917 0.0065582641 0.39088026 6913824
-0.019437388 0.0065475805 0.3906669 7768620
-0.054946903 0.0088628996 0.39048377 6582038
-0.053452898 0.0083756642 0.39073029 6977316
-0.051843558 0.008393215 0.39105147 8161334
-0.039418634 0.0079434067 0.39193755 6188825
-0.037489001 0.0079440195 0.39193723 6123034
-0.035559431 0.0079446314 0.39193696 6123031
-0.025268346 0.007930954 0.39161432 7569958
-0.023338767 0.0079315659 0.39161399 7175458
-0.021432338 0.0085937679 0.39149994 7373605
-0.019634327 0.0087164631 0.39128435 7966256
-0.017559368 0.0082132695 0.39059258 9215053
-0.053652737 0.010659488 0.39131114 6780188
-0.051811323 0.0099413162 0.39192143 8095795
-0.019398546 0.01043936 0.39167058 8426554
-0.017616849 0.010248986 0.39121488 9215056
-0.015671687 0.0098677175 0.39030537 10859889
-0.013481626 0.010107813 0.39104408 10925189
-0.012464811 0.010963399 0.39206815 4016168
-0.053925835 0.011925506 0.39158264 6713876
-0.017674319 0.012284991 0.39184356 9544534
-0.015731154 0.012251436 0.391197 10728305
-0.014111483 0.012251976 0.39119676 12110479
-0.039451227 0.0084905429 0.3928166 6122519
-0.037520021 0.0084911808 0.39281625 6188313
-0.035559364 0.0079785753 0.39257884 6254102
-0.033647995 0.0083099948 0.39252228 6451222
-0.050604329 0.010985237 0.39271936 7964720
-0.049257323 0.010324018 0.39283121 6977567
-0.043493394 0.011038722 0.393686 6385686
-0.041554082 0.01103932 0.39368573 5990675
-0.039614808 0.011039966 0.39368543 6187798
-0.037675481 0.01104059 0.39368504 6253591
-0.035716552 0.010693293 0.39341816 6582807
-0.013111158 0.010997322 0.3927134 4672056
-0.05123711 0.012747644 0.39291111 8293430
-0.049447812 0.012691139 0.3934097 7175203
-0.047774207 0.012029938 0.3935203 7240224
-0.013877902 0.012772389 0.3931475 9279344
-0.049583834 0.014396901 0.39410567 7175206
-0.048256893 0.014066472 0.39416036 7109154
-0.017732009 0.014372836 0.39345223 10662762
-0.01578192 0.014373435 0.39345184 11452030
-0.0138243 0.014077451 0.39415482 5923653
-0.047204472 0.013074046 0.39432493 7174946
-0.045582972 0.013074596 0.39432463 6977566
-0.043637179 0.013075213 0.39432448 6911775
-0.041668884 0.012744891 0.39437899 6188309
-0.039680172 0.012083792 0.39448845 6253848
-0.037737634 0.012084392 0.39448825 6319384
-0.047685497 0.015110834 0.39496988 7109154
-0.045708522 0.014780527 0.39502379 7043360
-0.043709036 0.014119318 0.39513233 6911775
-0.041760009 0.014119974 0.39513201 6188054
-0.039811026 0.014120569 0.39513168 6253591
-0.037537146 0.014121304 0.39513135 6253590
-0.017100224 0.015120576 0.39496493 10858866
-0.015798692 0.015138185 0.39528951 11846026
-0.049605612 0.01630496 0.39483964 7306535
-0.046862908 0.017148329 0.39562106 6779935
-0.045557074 0.017148759 0.39562076 7043107
-0.043526925 0.01615651 0.39578196 6845728
-0.04124552 0.01615724 0.39578167 6385177
-0.039290041 0.016157869 0.39578128 6384665
-0.017864656 0.016267333 0.39535105 10530152
-0.045378812 0.019169139 0.39595166 6845728
-0.018164136 0.018184816 0.39610764 10333282
0.020581827 -0.045332141 0.39723009 7174944
-0.041426111 0.018873932 0.39665785 6714142
-0.039418694 0.018212536 0.39676386 6450458
-0.019809641 0.018584371 0.39736104 9806671
-0.017770816 0.018482348 0.39752325 9542503
0.060760051 -0.049722236 0.39917991 3750448
0.061570071 -0.047722246 0.39912072 3553070
0.02056271 -0.045750991 0.39877826 7240740
0.062525079 -0.045520611 0.39908728 3224103
0.063790262 -0.043737341 0.39871565 3092518
0.066036478 -0.039720986 0.3989051 3355688
-0.021831227 0.020325288 0.39873445 9017405
-0.019661594 0.019902855 0.39884773 9740632
-0.0212323 0.022032864 0.39946017 10398807
-0.0190806 0.021628365 0.39968815 8357973
-0.021277441 0.023391919 0.39991295 10398811
-0.019628992 0.023392437 0.39991277 11319159
0.059101164 -0.050638486 0.40080109 5133357
0.06036273 -0.048017927 0.40063944 4541219
0.018462596 -0.045647804 0.4007425 7241253
0.020536834 -0.04632004 0.40064362 7438632
0.060865998 -0.046095461 0.40148416 7700793
0.061799761 -0.045660615 0.40023124 3093017
0.066036656 -0.039658513 0.4000856 2961431
0.066538796 -0.038612448 0.40092927 6187058
-0.023274183 0.023940282 0.40082511 8885309
-0.021294411 0.023940915 0.40082473 10990695
-0.019449607 0.024044311 0.40087518 8950105
-0.023342982 0.02583131 0.40186882 8227634
-0.021345522 0.025500756 0.40191814 11714416
-0.019360891 0.02550138 0.40191799 7305283
0.026722683 -0.049537778 0.40287957 7044121
0.057169821 -0.050501503 0.40340424 8031283
0.058234882 -0.05036689 0.40215537 7636274
0.021360155 -0.047519922 0.40319854 7306788
0.022525594 -0.04755028 0.40261671 6780444
0.024456149 -0.048184056 0.40267038 6846490
0.025973216 -0.04855701 0.40249392 7044121
0.058693409 -0.047955323 0.40284917 7768110
0.018563766 -0.045839529 0.40279898 7372580
0.020399483 -0.046547465 0.40265724 7372581
0.059058223 -0.046484496 0.40360844 7965489
0.06001753 -0.045785967 0.40260902 7768110
0.013915589 -0.042497281 0.40353951 7109409
0.064223692 -0.039849609 0.40279764 8294454
0.073139131 -0.030486738 0.40305328 13820851
0.075303093 -0.027822543 0.4029226 3290911
0.075483605 -0.026434805 0.40391549 3422243
0.076528504 -0.025473462 0.40315071 3224105
-0.032975409 0.02654299 0.40276298 7700537
-0.031650182 0.026543466 0.40276283 6977062
-0.035057068 0.028233467 0.40318099 8358206
-0.033455059 0.027581474 0.4034673 8095295
-0.031274348 0.027582156 0.403467 6911267
-0.029388344 0.027793575 0.403245 6911776
-0.027416265 0.028235873 0.40317979 7306788
-0.025423015 0.028236514 0.40317962 7701543
-0.023236252 0.028137596 0.4030984 9412163
-0.021413771 0.027540339 0.40261373 11451494
-0.019422676 0.027540958 0.4026134 10990689
-0.017449699 0.028204009 0.40251458 8950346
-0.027163107 0.030128013 0.40424126 7240737
-0.025517721 0.030625382 0.40416896 7701287
-0.02376833 0.030207351 0.40382743 9938507
-0.021573918 0.029841851 0.40352884 11451748
-0.019484455 0.029580899 0.40331537 11056733
-0.01748687 0.029581495 0.40331489 10135124
-0.020882253 0.031620659 0.40402389 11385697
-0.019546224 0.031621065 0.40402365 10201154
-0.01754217 0.031621665 0.40402332 10070087
-0.017625242 0.034638431 0.40426058 8951099
-0.016257178 0.033645015 0.40440345 12176004
0.026505215 -0.049442135 0.40469059 7373087
0.056500547 -0.04972057 0.40465033 8162619
0.022518631 -0.047608159 0.40467975 7240994
0.024112158 -0.048441038 0.40470028 7109405
0.057056885 -0.048198186 0.40530127 9347151
0.058074322 -0.047446642 0.40435594 8952901
0.018516362 -0.045427594 0.40490863 7307042
0.058857817 -0.045590423 0.40473467 8623937
0.016515542 -0.043933913 0.40476215 6912285
0.058985256 -0.044390995 0.40532407 8557890
0.059999049 -0.044080339 0.40487987 7768882
0.014515984 -0.041973125 0.40503314 6977823
0.015680308 -0.042403657 0.40530029 6912030
0.061907861 -0.041939035 0.40433085 8689210
0.013968395 -0.040387291 0.40556675 7109409
0.062491614 -0.040110365 0.40509218 8163128
0.064094156 -0.039414022 0.40472382 9346380
0.0077999216 -0.038387816 0.40554255 7767082
0.064973518 -0.038400777 0.40494218 9741656
0.072407246 -0.031432286 0.40411383 14019766
0.072857454 -0.029799074 0.40469807 14610879
0.073806971 -0.029926674 0.40417355 14412735
0.07442233 -0.027985729 0.40489382 9146996
0.075281993 -0.026370978 0.40512413 3750437
0.075619102 -0.025345823 0.40557224 3223837
-0.033378329 0.027972799 0.4045549 9345619
-0.031385425 0.027973428 0.40455452 7437867
-0.02942506 0.02863664 0.40445811 6977568
-0.028095506 0.028637083 0.4044579 7306531
-0.028898384 0.031653352 0.40469193 6780446
-0.015779139 0.034701008 0.4054327 10991478
-0.01757556 0.035947315 0.40534055 10793061
-0.015635684 0.035739306 0.40613016 11648895
0.055535533 -0.049371589 0.40584475 6978093
0.054544538 -0.047625076 0.40731791 10529901
0.056213379 -0.047616769 0.40656283 10136161
0.05661172 -0.045686115 0.40735972 8491334
0.057780396 -0.04572273 0.40665987 10728808
0.016908998 -0.043343022 0.40646607 7109407
0.018371494 -0.043868139 0.40704748 7636006
0.058812182 -0.043582387 0.40709102 10531172
0.05977723 -0.043512892 0.40677595 7965756
0.014826092 -0.041348878 0.40631524 6977823
0.01628218 -0.041865576 0.40705654 6912027
0.060730889 -0.041799657 0.40697521 10071133
0.010564645 -0.039351769 0.40623337 6912032
0.012639549 -0.039463114 0.40682077 6846492
0.014417899 -0.040061027 0.40700054 6978076
0.062374488 -0.040309526 0.40673745 9412947
0.064263403 -0.039300326 0.40687403 12504712
0.0069247037 -0.037316866 0.40686399 7635751
0.0083987685 -0.037895702 0.40695545 7372580
0.010381653 -0.038299918 0.40718952 7175202
0.011651255 -0.038292795 0.40731609 6977820
0.0060950746 -0.03573858 0.40695688 7307040
0.07005319 -0.033292759 0.40682194 14743486
0.07072565 -0.031530757 0.40699777 14414778
0.071807474 -0.031321686 0.40620995 14742975
0.072268009 -0.029287711 0.40679812 14480317
0.073871732 -0.027493026 0.40663981 11188619
0.074595913 -0.025666641 0.40708634 5922117
0.075788349 -0.024024118 0.40689415 3552807
-0.017637618 0.038299363 0.40721273 10464353
0.054578256 -0.047247969 0.40813723 8687691
0.051177215 -0.046178974 0.40943694 9544284
0.052344877 -0.046178613 0.40943679 12176005
0.054557018 -0.045765415 0.40912023 8227392
0.05639888 -0.045432035 0.40837842 8688965
0.057706505 -0.045245331 0.40811324 12439682
0.018797858 -0.043469585 0.4087964 7569955
0.054641798 -0.043663908 0.40963417 7701044
0.056549102 -0.043472499 0.40918294 9610069
0.058080923 -0.043548845 0.40863222 11189361
0.016819617 -0.041341156 0.4085539 7043868
0.018033478 -0.04220121 0.40911561 7504162
0.057440102 -0.04217311 0.40940285 10860398
0.058866881 -0.041696738 0.40893412 9807711
0.060404811 -0.041338004 0.40860638 11189108
0.012812258 -0.039238773 0.40835783 6912282
0.014635188 -0.039398868 0.40876144 6977819
0.015987771 -0.039796304 0.40915814 6977818
0.0611942 -0.040169761 0.40938902 11189114
0.062403694 -0.039952207 0.40876105 11320699
0.0083167553 -0.03763919 0.40887624 7372576
0.010466522 -0.038215 0.40879455 7241247
0.012441456 -0.038203977 0.40899143 7109404
0.006410141 -0.035608705 0.40887037 7109403
0.066698954 -0.036147833 0.40966469 12767641
0.0051795887 -0.03369971 0.40899751 7109659
0.068915591 -0.033508554 0.40906101 13691313
0.069754422 -0.033229798 0.40801537 15137987
0.068982869 -0.032141965 0.409655 13559473
0.069944456 -0.03169236 0.40868214 14217657
0.05244248 -0.045139011 0.41015741 11977344
0.053612318 -0.045138601 0.41015723 7898169
0.037304185 -0.04407322 0.41146857 7636257
0.050684027 -0.04387648 0.41131943 11714680
0.052481376 -0.04349098 0.41102457 9477206
0.054373559 -0.043369204 0.41047436 7635246
0.056159936 -0.043135777 0.41014299 9477968
0.01718354 -0.041161634 0.40984342 7109404
0.018717347 -0.041483123 0.41085607 7175454
0.019798297 -0.042076524 0.41146359 7306781
0.053323276 -0.042065769 0.41145819 8095804
0.054612674 -0.041788187 0.41128927 7898924
0.056328796 -0.041471075 0.41084987 9280841
0.058412265 -0.041298449 0.41015655 9676126
0.060197819 -0.04114785 0.40983662 11321212
0.01498098 -0.039134014 0.41032508 6780698
0.016423147 -0.039489202 0.41070148 6912282
0.017753711 -0.039900862 0.41095683 7241247
0.057062235 -0.040077604 0.41115707 10661979
0.058411531 -0.040083855 0.4110308 10268004
0.060470138 -0.039366785 0.41080645 11518338
0.062489722 -0.039098024 0.41071102 13031583
0.0087584322 -0.037513208 0.41071567 7306784
0.010478253 -0.037526075 0.41077712 7438371
0.012552247 -0.037608217 0.41078931 7109920
0.014488337 -0.037871417 0.41106054 6583832
0.015799157 -0.038072649 0.4114548 6847259
0.062604666 -0.038042087 0.41174302 12833690
0.0065864325 -0.035719424 0.41056353 7372832
0.0078305677 -0.03608818 0.41115773 7241247
0.06661813 -0.035296552 0.41061288 14677695
0.0051848702 -0.033108439 0.41071102 6846488
0.0060700057 -0.034101635 0.41086003 7307039
0.066942737 -0.034050703 0.41144571 14084532
0.067878962 -0.033766504 0.41050264 14480830
0.068766311 -0.031411152 0.41085172 13558703
0.030464068 -0.043543626 0.41341221 8490798
0.032483447 -0.043396618 0.41347462 7767590
0.034406375 -0.043489791 0.41305268 7767587
0.03666763 -0.043179046 0.41288993 7635999
0.038667832 -0.043390054 0.4125458 7833379
0.050264105 -0.043279074 0.41263521 10990952
0.052344125 -0.043044068 0.41190156 8753994
0.018951593 -0.041036714 0.41219559 6978073
0.020488754 -0.041257381 0.41274709 7307038
0.034796573 -0.041963104 0.41351575 7833380
0.035972886 -0.041962698 0.41351575 7899171
0.038325511 -0.041977488 0.41322175 6912275
0.05097089 -0.041973419 0.41321975 9543248
0.052332431 -0.041296124 0.41276407 9017670
0.054305777 -0.041025408 0.41219005 8096302
0.016755408 -0.039039824 0.41209567 7043868
0.018471709 -0.039248709 0.41287011 7109661
0.019872686 -0.039964963 0.41351992 7241245
0.052404691 -0.039276529 0.41371244 8293944
0.054447956 -0.039563231 0.41301161 8359476
0.056553088 -0.039227113 0.41251573 9609545
0.058350213 -0.039036948 0.41189229 11122543
0.060420081 -0.039036285 0.41189191 11978378
0.011080335 -0.03703374 0.41219512 7307292
0.01256422 -0.03703323 0.41219473 7175707
0.01463859 -0.037111625 0.41280329 7175197
0.016325157 -0.037742026 0.41297048 7175198
0.017576832 -0.037978321 0.41322848 7109406
0.055495247 -0.037950587 0.4135181 8030259
0.056715179 -0.037618946 0.41346958 10135636
0.058493253 -0.037649646 0.41287789 11188849
0.06048049 -0.037712067 0.41283256 12965018
0.062531993 -0.037578993 0.41292658 13293985
0.0069520334 -0.035047736 0.4119007 7372576
0.0085194446 -0.035432704 0.41272798 7767588
0.010458018 -0.035717931 0.41297954 7307035
0.012589755 -0.035894021 0.41322243 7306779
0.014074598 -0.035945017 0.41382754 7240988
0.063429087 -0.035929229 0.41381976 12570264
0.064826265 -0.035439737 0.41359901 13754539
0.06592761 -0.034997519 0.41248596 13097120
0.0069654891 -0.033991154 0.41294456 7306784
0.0078607686 -0.033959385 0.41354012 7240992
0.067003787 -0.033490911 0.41256449 14281141
0.067008302 -0.030943325 0.41339725 13096354
0.0678083 -0.030958891 0.41309768 14280628
0.026595611 -0.04121004 0.41518307 9412415
0.02865668 -0.041209407 0.41518274 8820018
0.030442147 -0.040862013 0.41542834 8951090
0.032484367 -0.0412082 0.41518211 7766304
0.034602828 -0.041158557 0.41495937 7898401
0.036300708 -0.041419178 0.41432393 7701535
0.03839666 -0.040926825 0.41415295 7372567
0.040511161 -0.041340217 0.41443881 7832863
0.042350274 -0.041454993 0.41496262 8886078
0.048754066 -0.041319799 0.41477332 10925417
0.050321136 -0.041318435 0.41424826 9016905
0.019022822 -0.038893554 0.41484991 7240734
0.036401775 -0.039866224 0.41528484 7437848
0.038510144 -0.039278571 0.4150221 7569685
0.040400766 -0.040060628 0.41537157 7832859
0.042226937 -0.040842712 0.41572052 9610053
0.048708539 -0.040840633 0.41571951 11451507
0.050680604 -0.039584372 0.41511559 7701296
0.051845148 -0.038914282 0.41425434 8688191
0.014938768 -0.0369072 0.41456413 6977560
0.016408719 -0.037348431 0.41462773 7306271
0.017873285 -0.037900064 0.41470695 7174685
0.052655544 -0.037388142 0.41470382 8753467
0.054311179 -0.037045524 0.41440916 8622137
0.056487452 -0.036909591 0.41426122 10267223
0.058564909 -0.036908939 0.41426098 11319663
0.06034556 -0.036908325 0.41426069 11912325
0.062126167 -0.036907803 0.4142603 13425314
0.012902371 -0.035181634 0.4147436 7898400
0.014281582 -0.035535172 0.41526425 7503644
0.016432649 -0.036512744 0.41570181 7371805
0.017609917 -0.036843739 0.41574863 7437599
0.052694153 -0.036169868 0.415649 9016379
0.054668836 -0.035452899 0.4153077 10398548
0.056426931 -0.035526957 0.41515869 11188072
0.058563303 -0.035282105 0.41526598 10727268
0.060511343 -0.035354756 0.41523337 11911809
0.062458631 -0.035431843 0.41511598 12898709
0.064111516 -0.035136562 0.41460302 10727544
0.0069789905 -0.032918558 0.41429111 7240994
0.0085657425 -0.03335458 0.41445374 7701798
0.01055076 -0.033674706 0.41469952 8096553
0.011889304 -0.033887286 0.41487974 7240470
0.057096291 -0.033849251 0.41531911 9411405
0.064257756 -0.033857439 0.41511938 11056504
0.066047981 -0.033909302 0.41412649 15268290
0.0070056887 -0.030883363 0.41490403 7306788
0.0085016433 -0.031123485 0.41508877 7767337
0.01058619 -0.03184459 0.41564244 8951608
0.012061108 -0.03283811 0.41578197 7109654
0.064433679 -0.03234021 0.41540477 12372105
0.065988824 -0.031874318 0.41473672 14741432
0.064967513 -0.03033622 0.41542369 13820063
0.066528603 -0.029870389 0.4147535 13228193
0.067730725 -0.029901752 0.41415346 14346421
0.024595594 -0.039823297 0.41617057 9016118
0.026366616 -0.03979158 0.41675931 9411393
0.028368264 -0.039893471 0.41671422 10201165
0.030480003 -0.040121593 0.41680577 9082680
0.03226243 -0.039921701 0.41662875 7700770
0.034630947 -0.039820068 0.4161689 8095779
0.041124437 -0.039817963 0.41616783 9609536
0.042560503 -0.040283408 0.41682681 10991452
0.02464143 -0.038766902 0.41721001 8885048
0.026415687 -0.038735181 0.41779986 9082430
0.028584104 -0.038750045 0.41750446 10201424
0.030555444 -0.038733851 0.41779938 9543491
0.032566126 -0.038751926 0.41744483 7701027
0.034415442 -0.038515281 0.41717404 7766816
0.036338363 -0.038230825 0.41645393 7635227
0.03857461 -0.038304489 0.41640019 8161822
0.040357567 -0.038190454 0.4166517 8885807
0.042435028 -0.03806727 0.4177056 10661973
0.048770413 -0.038746756 0.41744214 8556598
0.050330035 -0.038127247 0.41652262 7503909
0.015264237 -0.035803415 0.41649809 7832098
0.036854941 -0.036563568 0.41713974 7766814
0.038189381 -0.036165491 0.41708431 8424998
0.040462006 -0.036742434 0.41752216 10201670
0.050963547 -0.036604695 0.41690516 8358699
0.051933307 -0.03577609 0.41678897 9345597
0.01293387 -0.033816084 0.41621974 7964963
0.014336987 -0.034062404 0.41671765 7767071
0.016096929 -0.034409575 0.41760135 7306267
0.037036337 -0.034723785 0.41784167 8293160
0.038525604 -0.034723397 0.41784135 9148724
0.040312752 -0.03472276 0.41784105 10399309
0.051128726 -0.033725172 0.41770273 10596433
0.052709348 -0.034393173 0.41689581 10398801
0.054538734 -0.033796072 0.41634077 12241008
0.056499619 -0.033802189 0.41621274 9082945
0.058687855 -0.03379621 0.41631162 11648883
0.060677212 -0.033785116 0.41650993 12635274
0.062467523 -0.033800259 0.41621181 11516537
0.010586272 -0.031813007 0.41624016 8490801
0.012371689 -0.032283131 0.41680732 8688688
0.014153901 -0.032742843 0.41757187 8951860
0.053015459 -0.032730337 0.41756579 12043625
0.054370377 -0.032344926 0.41727203 10267469
0.056367435 -0.032123748 0.41718119 8754484
0.058449313 -0.032247376 0.41719797 12899205
0.060226746 -0.032396808 0.41751903 11122549
0.062039454 -0.032246243 0.41719756 12635276
0.06377697 -0.032790016 0.41637045 12240257
0.063008681 -0.030738851 0.41729063 12503691
0.064647987 -0.030459749 0.416246 13622427
0.065927699 -0.029807162 0.41595364 11978123
0.064212099 -0.02794842 0.41702834 13688223
0.043485954 -0.039723784 0.41793498 11911789
0.044666566 -0.0397234 0.41793483 11385445
0.028521227 -0.038009237 0.41888994 10266967
0.030612066 -0.037677191 0.41884425 10596185
0.032304816 -0.037685592 0.41867498 7437346
0.033574406 -0.037691906 0.41854802 7437599
0.044514325 -0.037936907 0.41858032 11780203
0.046523232 -0.038681939 0.41868204 9345596
0.047793798 -0.037687324 0.41854572 11779937
0.017048346 -0.035724457 0.41798159 7635746
0.018823458 -0.03594888 0.41846061 7503908
0.020508723 -0.036546223 0.41898969 7371555
0.022062048 -0.036670029 0.41900611 7634471
0.032776218 -0.036138132 0.41953 7831334
0.034521997 -0.036236316 0.41871363 7634976
0.036076616 -0.035702705 0.41827527 7964195
0.04142835 -0.035700947 0.41827449 8030506
0.042539556 -0.036694828 0.41841042 10398801
0.044347081 -0.036315817 0.41925389 11385702
0.046397772 -0.036646556 0.41929841 8819510
0.048588872 -0.036511503 0.41868323 8950838
0.050005 -0.036195327 0.41834116 9411641
0.016860384 -0.034077171 0.41883442 7767334
0.018279906 -0.034410492 0.41914901 7569446
0.020058809 -0.034634978 0.41962808 7436834
0.034774318 -0.034309305 0.41938308 8029223
0.03666193 -0.034340128 0.41878781 8095524
0.038394142 -0.034435563 0.41855106 9411896
0.040480483 -0.034434889 0.41855061 10070345
0.042436123 -0.034162074 0.41896269 10793815
0.044564258 -0.033632793 0.41949067 8358450
0.04656795 -0.034626476 0.41962376 10858070
0.048711788 -0.033973441 0.41933632 8819255
0.05050176 -0.034004319 0.41874039 9148472
0.052023981 -0.033693396 0.41829824 11385694
0.014573272 -0.031916808 0.41846144 8951862
0.016361607 -0.032155566 0.41919583 8754488
0.036182035 -0.032230787 0.41954434 9016374
0.049428523 -0.032636911 0.41935632 10661204
0.050670248 -0.03213932 0.41928983 11648097
0.052449483 -0.032346606 0.41851556 11319902
0.054277308 -0.032035656 0.41807178 9280572
0.056406148 -0.03170355 0.4180263 8886066
0.058502477 -0.031702936 0.41802594 13359756
0.060226817 -0.032365154 0.41811603 11122549
0.061796684 -0.03170184 0.41802531 13359513
0.014572149 -0.030447785 0.4193081 9412159
0.016006805 -0.03062723 0.41969359 8951865
0.05140847 -0.030631714 0.41938853 11385697
0.052526597 -0.030243175 0.41915548 9741126
0.054408457 -0.030678263 0.41848984 8228136
0.056559812 -0.030156648 0.41887215 10136139
0.058467332 -0.029919254 0.41904581 11648883
0.060299572 -0.030081077 0.41892618 12108928
0.062020823 -0.029681562 0.41835406 12964498
0.054524466 -0.028225169 0.4194302 9675074
0.05623249 -0.028016247 0.41958401 10859351
0.058323946 -0.027598696 0.4198918 10332510
0.060572136 -0.028014813 0.41958338 12963982
0.062425986 -0.027654711 0.41880736 12766863
0.061561119 -0.025608713 0.41962868 12832398
0.022552524 -0.036027823 0.42032695 7765799
0.024540486 -0.036155816 0.42059967 8095534
0.026530292 -0.036227442 0.42103535 9279558
0.02845604 -0.036325451 0.42074975 12503169
0.030392056 -0.035812084 0.42061239 11779191
0.03189496 -0.03592569 0.42039767 7896615
0.018902374 -0.033593811 0.42038819 7831851
0.02049827 -0.033981591 0.42061946 7568417
0.022219891 -0.034161054 0.42100254 7437085
0.024494767 -0.033923656 0.4216904 7701031
0.031108266 -0.03402416 0.42164278 15003826
0.032675188 -0.033887599 0.42105857 9015613
0.034120541 -0.033588912 0.42038578 7503135
0.044564363 -0.033601344 0.42008632 8358450
0.04656804 -0.034595072 0.42021841 10858070
0.0484435 -0.033600096 0.42008567 9082172
0.016875837 -0.031589784 0.42042387 10925405
0.018183094 -0.032153085 0.42058426 8556346
0.020451417 -0.032038473 0.42138499 7831588
0.022538094 -0.032187786 0.4217045 7699999
0.023720428 -0.032518923 0.42174742 7371806
0.033347081 -0.031521343 0.42161688 7305248
0.034631383 -0.032570686 0.42070135 8621617
0.036042213 -0.031583693 0.42042059 9148217
0.043150928 -0.032607339 0.41995415 8226865
0.044726957 -0.031580899 0.42041937 9279549
0.046523798 -0.031580362 0.42041895 11121498
0.048490353 -0.031921674 0.42026356 9937481
0.050026473 -0.032605231 0.41995302 12108648
0.015120498 -0.030098604 0.42022693 8886071
0.016456967 -0.030571666 0.42074177 10465108
0.018429348 -0.029868431 0.4214038 10662238
0.019907245 -0.030531019 0.42148975 8424244
0.03475789 -0.030534167 0.42133754 8753717
0.036441039 -0.0300548 0.42092308 8490802
0.048466623 -0.029901085 0.42059985 9214271
0.05023922 -0.030253176 0.42024326 10595411
0.016668241 -0.028527053 0.42153257 10794075
0.058534149 -0.025561778 0.42053562 11121767
0.059744995 -0.025561426 0.42053536 12898184
0.060761914 -0.024566533 0.42040551 12635018
0.021068746 -0.031493627 0.42221653 8028971
0.022538187 -0.032156281 0.42230162 7963173
0.024191005 -0.031966269 0.42272806 8490036
0.026411006 -0.032455064 0.42294046 8884541
0.028204622 -0.032454435 0.42294014 9805903
0.031193953 -0.032453466 0.42293966 14345126
0.032748315 -0.031468835 0.4226132 11318124
0.018429415 -0.029836714 0.42200336 10662241
0.02052673 -0.029985966 0.42232442 10266452
0.02262097 -0.030135265 0.4226447 7765798
0.024437131 -0.029755604 0.42350149 7963183
0.028607963 -0.030417403 0.42358431 10135127
0.030408047 -0.030416887 0.4235841 12634754
0.032621626 -0.030200375 0.42345601 11449451
0.034513004 -0.030084124 0.42227501 8423728
0.036173731 -0.02949951 0.42195779 9609538
0.020451164 -0.02795691 0.42282149 12306554
0.022399068 -0.028181201 0.42330331 9871437
0.034820084 -0.028432727 0.42320362 8094504
0.036003515 -0.027446695 0.42290601 8425006
0.036975134 -0.02645167 0.42277986 8227884
0.028960798 -0.029375019 0.42435893 9542993
0.030463552 -0.029374503 0.42435864 10990186
0.024541648 -0.027386693 0.42411193 8949825
0.02630361 -0.028381038 0.42423546 9542220
0.028546652 -0.027690517 0.42465439 9213773
0.030574424 -0.027337037 0.42501423 10661736
0.032364629 -0.027683964 0.42475414 12897929
0.034857582 -0.027345207 0.42483291 8290861
0.022773199 -0.026392413 0.42398855 11714160
0.024630902 -0.025365021 0.42446861 11319145
0.026399354 -0.026359415 0.424591 9542223
0.027608048 -0.026359035 0.42459092 8687430
0.030685304 -0.025299152 0.42567626 11517052
0.032501582 -0.025298616 0.4256759 12107905
0.033974186 -0.025993383 0.42515278 9277769
0.036975384 -0.026355995 0.42458948 8753204
0.026495127 -0.024321491 0.42525369 12503942
0.028314641 -0.02432091 0.42525336 10990706
0.029527703 -0.024304483 0.42555586 11846019
0.038774386 -0.023954798 0.42453671 10727509
0.040195677 -0.023570867 0.42516041 8753719
0.0265909 -0.022283344 0.42592269 12109958
0.0305472 -0.022282068 0.42592213 13095833
0.040833425 -0.022336561 0.4248268 8819253
0.041807376 -0.022310577 0.42531273 8490032
0.03261891 -0.023276437 0.42604125 12041858
0.04051752 -0.023273878 0.42604008 8093992
0.032184064 -0.020242969 0.42659733 12897939
0.042337935 -0.019244567 0.4264777 8423463
0.042451143 -0.017687012 0.42752591 8884265
0.042488959 -0.017124614 0.42869356 8817960
0.042639848 -0.015068709 0.42969656 11384418
0.041789308 -0.014057224 0.42989343 12502906
0.043023977 -0.014024178 0.43050924 10068838
0.040626545 -0.01296412 0.43163416 13884327
0.043175858 -0.011983942 0.43121704 4079908
0.036468349 -0.010277431 0.43196791 6250028
0.038287617 -0.010940706 0.43203861 8619851
0.039874218 -0.010442357 0.43198526 11383925
0.043016952 -0.0099434266 0.43193129 3552294
0.040935792 -0.012931431 0.43225136 9342053
0.041937098 -0.011935398 0.4321447 3683875
0.036468424 -0.010244699 0.43258792 11448436
0.038287725 -0.010907941 0.43265805 10462567
0.039874293 -0.01040954 0.43260506 11251826
0.04091299 -0.0089154718 0.43244669 7499588
0.042507391 -0.008417083 0.4323937 4012577
0.042692639 -0.0058778711 0.43306693 3882275
0.043840129 -0.0058940453 0.43275455 3487273
0.040729258 -0.0048412709 0.43374577 12832406
0.042202696 -0.0048523741 0.43352652 9278051
0.044177741 -0.0048567061 0.43343225 3421222
0.038706712 -0.0045461152 0.43513221 11845499
0.040627755 -0.0039921016 0.43507615 13029781
0.042437702 -0.0037796448 0.43487433 12173712
0.0440212 -0.0047823037 0.43484032 3091999
0.092891127 0.049505718 0.45749813 13818252
0.093853265 0.049856972 0.45782134 13357961
0.092646152 0.047931641 0.45929477 14939061
0.094409212 0.05063121 0.45983535 11189631
0.093353644 0.048224393 0.46167076 12243091
0.094409496 0.050739672 0.46188736 13031837
0.093086377 0.048813809 0.46335015 14413747
0.09303917 0.050847672 0.46393928 14149805
0.094350398 0.051597383 0.4639045 14084012
0.093088403 0.051253092 0.46529296 14675635
0.093724608 0.050884079 0.46462327 14873528
0.093333885 0.052990764 0.4665913 13424029
0.092354387 0.05102827 0.46735948 12897680
0.09333396 0.053045217 0.46762055 13226394
