# .PCD v0.7 - Point Cloud Data file format
VERSION 0.7
FIELDS x y z rgb
SIZE 4 4 4 4
TYPE F F F U
COUNT 1 1 1 1
WIDTH 1083
HEIGHT 1
VIEWPOINT 0 0 0 1 0 0 0
POINTS 1083
DATA ascii
0.034887973 0.13625583 0.32011446 5987382
0.036269825 0.13603708 0.3201108 5920819
-0.10223615 0.13883677 0.32125363 10459492
0.029509703 0.13815466 0.3217456 7632718
0.030964132 0.13867866 0.32098433 7106376
0.03255393 0.13842772 0.32053065 6579777
0.034023456 0.13807204 0.32037684 6448446
-0.10350326 0.14113662 0.32092413 9208917
0.029751452 0.14015113 0.32170045 8027476
0.031052817 0.14092328 0.32104224 7040328
0.032250356 0.14009237 0.32012033 7106122
-0.10528822 0.14330947 0.32150692 9012053
0.029864216 0.1424832 0.32168594 6842691
0.031139787 0.14269307 0.320988 7106123
0.032508645 0.14209242 0.32031646 7237708
-0.10645529 0.14500853 0.32100087 11051891
-0.10536662 0.14447388 0.32059011 9736286
0.031005396 0.14428854 0.32086423 6777160
0.032243319 0.14409159 0.32000926 7435859
-0.10898407 0.14720903 0.32111335 12302727
0.02957027 0.1471542 0.32164428 5132332
0.030679816 0.14646553 0.32121104 5329971
0.032625053 0.14709009 0.32019997 7238220
0.029813176 0.14915426 0.3218289 5329198
0.031416107 0.14911799 0.32090518 5461811
0.032239307 0.14809848 0.32038781 6646595
0.029928422 0.15015024 0.32166079 5000233
0.030995289 0.15046249 0.32123384 5132590
0.032094479 0.15110137 0.32040435 5001516
0.029644983 0.15215343 0.3215903 4869414
0.030635539 0.15251411 0.32092032 4803879
0.025641395 0.15521103 0.32177487 3553306
0.027131798 0.15518227 0.32122988 3948317
0.029109117 0.15481883 0.32101905 4474914
-0.12379843 0.15692246 0.32100463 7631679
-0.12134515 0.1572291 0.32113078 7302988
-0.059483949 0.15772864 0.32107079 13616031
-0.057363961 0.15767628 0.3213284 6182200
-0.055519827 0.1576256 0.32136807 6051897
-0.052953023 0.15754797 0.32116741 5723189
0.028022381 0.15617821 0.3217169 4408861
-0.10115612 -0.078504153 0.32271314 12367508
-0.099753462 -0.079015464 0.32317269 9737573
-0.097977318 -0.078209534 0.32289729 9870440
-0.092524812 -0.079569921 0.32370466 12370062
-0.090734206 -0.079620324 0.32290056 14013094
-0.088739388 -0.078825727 0.32333928 12961683
-0.097189263 -0.076249309 0.32314706 9673578
-0.086863749 -0.077001601 0.32363075 12370057
-0.096474424 -0.075174771 0.32303494 9739111
-0.095647901 -0.074172534 0.32268712 9804390
-0.084532298 -0.075563028 0.32311577 12370057
-0.08272709 -0.074739762 0.322869 12829846
-0.081375316 -0.074057288 0.32209259 14538928
-0.096327871 -0.073599823 0.32394415 9211998
-0.095185176 -0.072546259 0.32318211 9805159
-0.09357065 -0.072297774 0.32256994 10133866
-0.091673017 -0.072347268 0.32207999 10725490
-0.082723133 -0.073242128 0.32305479 12107392
-0.080777429 -0.072855741 0.32283267 12567182
-0.094854787 -0.070681937 0.32333177 9870952
-0.093348868 -0.070379719 0.32347661 9805160
-0.091351129 -0.07040032 0.32271549 10527856
-0.089555651 -0.070378684 0.32224107 10725489
-0.082170971 -0.071401767 0.32380995 11778939
-0.080776513 -0.071228921 0.32301211 12041600
-0.078972988 -0.070799246 0.3230294 12303241
-0.09152294 -0.069070309 0.3236289 9870698
-0.089561805 -0.068415105 0.32304016 10002025
-0.080930963 -0.069101438 0.32366681 11844736
-0.078626342 -0.069317065 0.32290706 12436106
-0.077076375 -0.069104254 0.32284433 13487776
-0.089101084 -0.0665887 0.32325804 10133870
-0.087321371 -0.066507593 0.32229197 10265711
-0.076563604 -0.067148 0.32335797 12107404
-0.075320154 -0.067176931 0.3227753 12632983
-0.089168765 -0.064539567 0.32384145 10199665
-0.087094143 -0.064765565 0.32297021 10133872
-0.085324645 -0.064742737 0.32212016 10463092
-0.074738294 -0.065285146 0.32338449 11975820
-0.073701411 -0.065335445 0.32267576 12961949
-0.087118454 -0.062538214 0.32375273 9673580
-0.085266516 -0.062578455 0.32274532 9870700
-0.074473567 -0.063573763 0.32371843 11647108
-0.072998367 -0.063480861 0.32302907 12107151
-0.071503751 -0.063405201 0.32322773 12501656
-0.084620833 -0.060798675 0.32259065 10002285
-0.083999038 -0.060089733 0.32272914 10133872
-0.074131966 -0.061192948 0.32370722 11581314
-0.07296285 -0.06148795 0.32328975 11581061
-0.071044236 -0.061623175 0.32317176 12041359
-0.069706149 -0.061333966 0.32244396 13685423
-0.085061878 -0.05856685 0.32326454 10002540
-0.083098307 -0.058962665 0.32230163 10331506
-0.081000432 -0.058765776 0.32231227 10462836
-0.079136923 -0.058834359 0.32218727 11974020
-0.077669702 -0.058855407 0.32208738 11184761
-0.072965547 -0.059169114 0.32331276 11186812
-0.070553459 -0.059432168 0.32299447 11712905
-0.068943024 -0.059510354 0.32299858 12303760
-0.067123167 -0.058927249 0.32280922 12895130
-0.065269411 -0.05877497 0.32239106 14538174
-0.08483655 -0.056465972 0.32348663 9607783
-0.082756817 -0.056754194 0.32238722 10002541
-0.081033699 -0.056873698 0.32244796 10330736
-0.079117209 -0.05691601 0.32232392 11512950
-0.077349834 -0.056667704 0.32212427 10922101
-0.070971772 -0.057498328 0.32360446 11054974
-0.068216048 -0.057015579 0.32249072 11581061
-0.066907555 -0.057185668 0.32304829 11975559
-0.065381065 -0.057343412 0.32355195 13289886
-0.086720631 -0.054203734 0.32390448 9936239
-0.084886789 -0.054317709 0.32377663 9804652
-0.082938209 -0.054597251 0.32338458 9870958
-0.080965251 -0.054849993 0.32282716 11579004
-0.078962803 -0.054788955 0.32264027 10658413
-0.077026315 -0.05492742 0.32242957 11053947
-0.075069681 -0.054845013 0.32202545 10593654
-0.068884641 -0.055270597 0.32348716 11252354
-0.066738375 -0.055172827 0.32282335 11449733
-0.084802464 -0.052512724 0.32393515 9804912
-0.082749873 -0.052639246 0.3236182 10265205
-0.080905467 -0.052787632 0.32326126 10987640
-0.078900591 -0.052953754 0.3230935 10659187
-0.076807424 -0.053041212 0.3229084 10857082
-0.075000376 -0.052781899 0.3224566 10593910
-0.068655096 -0.05268852 0.32388616 10857597
-0.067259967 -0.053184766 0.32329988 11186562
-0.082447231 -0.050572034 0.32365564 10330742
-0.080772869 -0.050808325 0.32352012 10462838
-0.078754917 -0.050817907 0.32363176 10397046
-0.077239677 -0.051123276 0.32349598 10199666
-0.07473997 -0.050882731 0.32279021 10133873
-0.073013097 -0.051032458 0.32201046 10725754
-0.068429947 -0.050631136 0.3235482 10792061
-0.082799114 -0.04905127 0.32373267 10199928
-0.080804043 -0.048685711 0.32379138 9804910
-0.07896851 -0.048370853 0.32370883 9805167
-0.076752074 -0.049037017 0.32348421 10265716
-0.074737042 -0.048939966 0.3232885 10199665
-0.072701946 -0.048975237 0.32245678 10331253
-0.06829372 -0.048629444 0.32383814 11055233
-0.06724555 -0.048464675 0.32358631 10923647
-0.087371334 -0.047267377 0.32373071 9936499
-0.085505612 -0.047340892 0.323571 10068340
-0.080674052 -0.046423797 0.32399818 10068082
-0.078609519 -0.047111437 0.32350841 9805165
-0.076803185 -0.047120854 0.32320234 10133613
-0.074953288 -0.046839118 0.32288432 10002541
-0.073233694 -0.046786964 0.32269058 10134384
-0.064814933 -0.047683273 0.32397431 13026965
-0.063418448 -0.047212824 0.32231191 12433311
-0.086874165 -0.044843081 0.32399872 10265464
-0.078758091 -0.044873007 0.32374954 9739371
-0.076818541 -0.045296207 0.32314944 9805161
-0.074749947 -0.045073092 0.32316312 10002540
-0.072937422 -0.045004491 0.32284081 10002541
-0.071300872 -0.045016982 0.32263076 9936746
-0.066797562 -0.044836923 0.32364333 10924160
-0.063010991 -0.044990119 0.32343602 11251839
-0.061231401 -0.044804469 0.32316425 11054969
-0.059287671 -0.045129731 0.3227092 11449730
-0.057385147 -0.044857003 0.32261056 11647618
-0.055562522 -0.045109596 0.3227253 11581831
-0.053679354 -0.044421658 0.32263723 11845001
-0.051712848 -0.044402562 0.32231665 12371088
-0.048866671 -0.044277698 0.32285419 7961183
-0.076851234 -0.043002196 0.32388216 9673576
-0.074759282 -0.042952076 0.32358882 9870957
-0.072585218 -0.04305831 0.32354519 10133871
-0.070586972 -0.043562498 0.32262632 9870697
-0.068871066 -0.04314892 0.32250416 10068591
-0.066731848 -0.04314718 0.32295281 10134641
-0.06459596 -0.042792164 0.32357687 11121274
-0.062536344 -0.04295402 0.32345378 11186554
-0.060663011 -0.043202192 0.3231971 10198638
-0.058819473 -0.043330867 0.32351065 10528883
-0.057329226 -0.042811502 0.32292068 11515267
-0.055135716 -0.043379307 0.32258141 4999987
-0.053614732 -0.043287113 0.32373184 10199414
-0.074599423 -0.040982302 0.32392573 9870700
-0.07263919 -0.041022118 0.32380986 10002541
-0.070499688 -0.041168079 0.3236593 10134384
-0.068531588 -0.041274026 0.32307327 10068590
-0.066928998 -0.041314583 0.32234448 9937005
-0.064960837 -0.040747505 0.32265139 10134381
-0.058088984 -0.041337103 0.32382879 10529391
-0.0561825 -0.040928096 0.32347825 11450755
-0.055050861 -0.040590107 0.32273063 11448968
-0.070655078 -0.039121546 0.32370913 9936234
-0.068747342 -0.039446417 0.32319674 9936747
-0.066567302 -0.039356492 0.32314497 10200177
-0.064615868 -0.039228696 0.32258666 10332280
-0.063195273 -0.039537944 0.32247955 10858106
-0.060686976 -0.038902864 0.32259956 11384201
-0.058660462 -0.038179681 0.32220581 11581578
-0.057403274 -0.038055219 0.32200244 11910542
-0.054200847 -0.039662734 0.32336271 12042133
-0.052914996 -0.038809527 0.32268736 12042382
-0.070184879 -0.037463468 0.32372335 9739114
-0.068762138 -0.037055545 0.32365474 9673579
-0.066590004 -0.037729356 0.32288459 9936750
-0.064696401 -0.036799058 0.32274145 10594686
-0.062557764 -0.037076302 0.32284567 10857859
-0.060370862 -0.037532881 0.32339239 11186822
-0.058408104 -0.036990177 0.32295805 11647372
-0.056504391 -0.036501821 0.32248151 12238999
-0.051282927 -0.037326783 0.32274067 11975571
-0.049336437 -0.037301708 0.32334679 8748389
-0.068499073 -0.035246223 0.32369843 9804909
-0.066797651 -0.035408642 0.32325342 9739372
-0.064505115 -0.035271153 0.3235887 10595196
-0.062806122 -0.035449222 0.32328802 11054981
-0.060928684 -0.035463534 0.32255131 11975830
-0.058031157 -0.035810102 0.32361987 12305560
-0.056087084 -0.034452967 0.32382765 11976334
-0.055159464 -0.034710363 0.32258844 12633500
-0.066322841 -0.033326566 0.3239845 10134387
-0.062480316 -0.033510633 0.32358 10791809
-0.060522828 -0.033577487 0.32289726 10791553
-0.058512609 -0.033567742 0.32254645 11186563
-0.056469649 -0.033302497 0.32279199 11318150
-0.054659214 -0.032795504 0.32326317 11645832
-0.053514838 -0.032457016 0.32238403 10591864
-0.060317405 -0.031693626 0.32358775 10265460
-0.058399625 -0.031728525 0.32345834 10593910
-0.056387261 -0.031757709 0.32334486 10330740
-0.054360814 -0.031825569 0.32314062 10198643
-0.053053997 -0.031042285 0.32255179 10264447
-0.054216441 -0.029110197 0.323906 10462582
-0.05294472 -0.027337687 0.32357413 10130794
-0.10443392 -0.02460623 0.32269871 7697465
-0.10433429 -0.022593703 0.32269818 7236914
-0.1039071 -0.023066424 0.32392782 7565880
-0.11268777 -0.021533437 0.32363218 10987390
-0.1110315 -0.021077543 0.3230904 10790250
-0.10879777 -0.021192301 0.32315147 8947269
-0.10659117 -0.021350782 0.32363278 9671005
-0.104438 -0.02128984 0.32214966 7894846
-0.10290202 -0.020845065 0.32321212 7499835
-0.1005991 -0.020799531 0.32387176 9077328
-0.11214912 -0.019367615 0.32247582 9803893
-0.11053634 -0.019505212 0.32247886 10789993
-0.10884573 -0.019702373 0.3229644 8749891
-0.10684428 -0.019102398 0.32287517 7895099
-0.104619 -0.019383246 0.3236627 8618310
-0.10264518 -0.019298494 0.32303697 7960127
-0.10079011 -0.018920176 0.3230122 8288588
-0.098937832 -0.018513836 0.32377639 9604188
-0.1120159 -0.017533464 0.3220714 9276781
-0.10864232 -0.017193008 0.32220474 8552508
-0.10638819 -0.017514009 0.32269788 6842410
-0.10467986 -0.017482396 0.32277086 7499572
-0.10282567 -0.017119167 0.32282889 8355142
-0.10190448 -0.017051119 0.32326597 4999191
-0.098584138 -0.017384442 0.32308215 8025154
-0.097500391 -0.017349856 0.32315338 8485962
-0.11109417 -0.012947687 0.32345361 9999482
-0.10928553 -0.012963136 0.32345739 10920805
-0.10669294 -0.012521517 0.32293475 9933655
-0.10537696 -0.01375784 0.32355905 8486206
0.010958987 -0.012431404 0.32319182 11315562
0.019421831 -0.012776861 0.32264072 5393726
-0.11108095 -0.011643375 0.32266283 8881260
-0.10938094 -0.01153349 0.3225823 11183985
-0.10742337 -0.011563041 0.32246819 10656863
0.0052135829 -0.010341147 0.32291096 12829842
0.0068082106 -0.011262779 0.32329151 13290388
0.0092647178 -0.011877423 0.32296249 12961418
0.010876435 -0.01039606 0.32321668 14079143
0.012420818 -0.01115877 0.32265428 13224087
0.014720653 -0.011074916 0.32285517 12499858
0.016870117 -0.0114412 0.32324597 10394741
0.019126885 -0.011551321 0.32253259 5921339
0.0037425486 -0.0096832644 0.32227629 11973763
0.0091793817 -0.0090731159 0.32229117 14473647
0.010974592 -0.0089513287 0.32303184 14079400
0.013286476 -0.0087618418 0.32303905 13355414
0.014714809 -0.0093514482 0.32312959 13026706
0.01654434 -0.0094670113 0.32259101 11643763
-0.10812188 -0.0064443778 0.3237665 9473385
-0.10578366 -0.0060596112 0.32397032 10130803
0.011385769 -0.0072731809 0.32303032 13684385
0.012634957 -0.0075542126 0.32261777 14079910
-0.10970961 -0.004218427 0.32376114 8091727
-0.096131518 -0.0044703041 0.32335195 12567193
-0.095119014 -0.0048334128 0.32341546 11777679
-0.093790583 -0.0054338132 0.32359394 11646093
0.009127344 -0.0049859826 0.3228336 11775881
0.010297931 -0.005391839 0.32323098 13289372
0.015095237 -0.0048856623 0.32317424 12039806
0.016830662 -0.0054006306 0.32303256 10130533
0.01825529 -0.0056449333 0.32338947 8813138
-0.10982162 -0.0020211292 0.32361796 8815451
-0.1078483 -0.0036720138 0.32295835 9999218
0.011484548 -0.0023822524 0.32315663 12698009
0.013028781 -0.0034838635 0.3237246 13027475
-0.10846932 -0.0010454564 0.32308006 9539436
-0.10690127 -0.00071697793 0.32314718 11184513
-0.10493828 -0.00030836649 0.32302019 10920320
-0.10014087 -0.00050611707 0.32308236 10725764
-0.099048004 -0.00096479856 0.32305571 10659714
0.0073995981 -8.056243e-05 0.32331485 12632460
0.0093185501 -0.0012470807 0.32311091 12171918
-0.10935695 0.00051257433 0.32281345 8815455
-0.10688308 0.0010620928 0.32300678 9935226
-0.10582732 0.0014722948 0.32317445 10266492
-0.10252709 0.0015118299 0.32332712 11251076
-0.10129815 0.00072737265 0.32293877 10791299
0.004775052 0.0018714517 0.32304147 12566678
0.0060100406 0.00040094345 0.32348055 13159067
-0.10912357 0.0022894589 0.32328847 10986881
-0.10791267 0.002933145 0.32275116 9802098
-0.10493223 0.0024841465 0.32317626 9476722
-0.10364886 0.0024887165 0.32312945 11382918
-0.002803714 0.0028678505 0.32352147 9014110
-0.0019865711 0.0038646823 0.32362086 11580294
-0.10867953 0.0043473491 0.32345447 12367772
-0.10746657 0.0049557006 0.32356751 12959909
-0.10562439 0.004875158 0.32312796 10722175
-0.0052805468 0.0055371933 0.32287979 10395226
-0.0034005456 0.0043890579 0.3226977 8684623
-0.012344845 0.0070461007 0.32324457 9736281
-0.01099216 0.0068264976 0.32311761 12960907
-0.0092969164 0.0066931099 0.32225192 12763773
-0.0073645776 0.0061036488 0.32314879 12566138
-0.012860514 0.0080502089 0.32313067 8353856
-0.032690521 0.021363761 0.32208955 13353895
-0.031308625 0.021385849 0.32256952 14011824
-0.028764972 0.020647515 0.32244897 16050370
-0.027398884 0.021371551 0.32284632 15130294
-0.025761776 0.021475308 0.32258254 9669473
-0.033238884 0.023017697 0.3228898 9998449
-0.031592268 0.022441212 0.32327759 13815216
-0.034633204 0.025209004 0.32305729 6315065
-0.03110021 0.025121981 0.32345501 12698014
-0.028891556 0.025151288 0.323531 14013099
-0.035014369 0.027025346 0.32322621 4869176
-0.032308925 0.026014002 0.3221125 14144956
-0.031945888 0.026150195 0.32393089 13355690
-0.026928838 0.026193304 0.32378104 8288848
-0.025479812 0.026744349 0.32342291 8486223
-0.035224497 0.028046353 0.32291403 2566180
-0.027967988 0.029683206 0.32347596 14672574
-0.025345976 0.029002426 0.32377309 13290921
-0.023725852 0.028172458 0.32294607 6447158
-0.027066916 0.035502486 0.3220351 12763822
-0.025263613 0.035909086 0.32277253 13947062
-0.023102701 0.035490438 0.32308918 11776148
-0.021892775 0.035705645 0.3234762 10131332
-0.026927702 0.036878422 0.32314977 15065547
-0.024981709 0.036655322 0.32343662 14012599
-0.023137238 0.036888897 0.32376075 11709582
-0.026969835 0.038627926 0.32327279 14079164
0.071960926 0.073734574 0.32230067 5329704
0.072844617 0.072350457 0.32226902 5658411
0.074366666 0.072270781 0.32219404 7039803
0.070539311 0.074948624 0.32270736 5329447
0.072556034 0.075960644 0.32202598 6382390
0.067058936 0.07796029 0.32368258 5133349
0.068668783 0.076287098 0.32335442 5263399
0.07264559 0.077971771 0.32212263 7237954
0.074601084 0.077266037 0.32201445 7435591
0.066767298 0.079998292 0.32388908 5264421
0.068659171 0.079023018 0.32327622 5593901
0.070813701 0.07809788 0.32261023 6316854
0.072837107 0.079877779 0.3222225 7632455
0.067700177 0.080728121 0.32351959 5462314
0.070719324 0.080022335 0.32277 6250803
0.051617652 0.083450958 0.32263783 5987117
0.052918639 0.08342538 0.32313329 5855018
0.054764628 0.083325751 0.32300302 5657639
0.056676283 0.083251096 0.32324329 5592102
0.059279986 0.083174117 0.32389548 5789220
0.060839698 0.083092459 0.32381865 5592356
0.063021854 0.082779408 0.3237375 5789481
0.064975247 0.083058544 0.32381552 6118447
0.066815771 0.082211554 0.32359952 6052912
0.068767905 0.083105892 0.3232156 6580283
0.070612423 0.082215622 0.3229357 6053168
0.072858542 0.082916148 0.32247037 6184240
0.049375527 0.085274152 0.32317418 7763531
0.050712865 0.084656499 0.32282284 6184755
0.056904901 0.084458299 0.3224594 5592103
0.058753394 0.084620759 0.32321697 5658151
0.061072409 0.08508496 0.32376194 5921322
0.062863559 0.084991202 0.32367378 6250033
0.066779874 0.08462052 0.32350335 6645305
0.068585321 0.085356861 0.32333732 6711611
0.070429191 0.085029177 0.3231408 6711355
0.072758555 0.085621104 0.32243735 6447412
0.077019557 0.084180094 0.32205573 6383158
0.047709778 0.087411933 0.32381466 11054721
0.048807584 0.087053649 0.32294831 7368259
0.050638832 0.086471148 0.32211733 5329444
0.057844404 0.086128078 0.32221162 5592104
0.059434861 0.086893886 0.32333291 6907974
0.060712654 0.086568497 0.32323521 6513205
0.063102387 0.086982884 0.32361028 7105343
0.064981565 0.086233556 0.32376009 6973757
0.066628225 0.086472824 0.32355785 6974013
0.07076899 0.086348616 0.32281059 6447924
0.073029704 0.087730363 0.32217976 6973755
0.07495068 0.087600812 0.32204267 7171392
0.047272511 0.089191355 0.32367107 8487766
0.048553273 0.089003041 0.32272041 5723175
0.053852845 0.088676818 0.32323563 7830101
0.05656369 0.088323675 0.32300967 8225370
0.058964543 0.088685691 0.3222312 6776378
0.061246306 0.088480465 0.32304502 6907964
0.062951878 0.088162161 0.32317692 7303492
0.065299712 0.089039944 0.32345739 7369287
0.06715861 0.088461012 0.32300559 6777150
0.069116421 0.088312045 0.32292676 7040320
0.071166418 0.08815176 0.3225292 6579252
0.047417097 0.091576524 0.32333961 6644798
0.048963107 0.091024511 0.32258052 6842946
0.050936442 0.09057121 0.32313991 7632466
0.052047141 0.090510771 0.32263592 7698257
0.059287131 0.090311214 0.32202712 6776892
0.061201554 0.09060932 0.32254982 6974014
0.063154809 0.090667613 0.32258451 7039807
0.065063402 0.090578496 0.32263246 6908478
0.067089856 0.090438023 0.32230055 6974528
0.069185846 0.090298861 0.32206166 7303236
-0.014769832 0.093721651 0.32283866 5460777
-0.012797071 0.093625635 0.32283697 5987885
-0.011010443 0.093513846 0.3225089 5593381
0.045311317 0.093865901 0.32347408 6118712
0.046486475 0.092814222 0.3226845 7500371
0.04893529 0.092520498 0.32215166 7368784
0.063503176 0.092867419 0.32202673 6842941
-0.017381791 0.095490679 0.32297659 5460778
-0.014985165 0.09478987 0.32354489 6250546
-0.010367008 0.094548106 0.32331759 6185260
-0.0090700239 0.094860911 0.32297859 5658660
0.043108113 0.095817834 0.32345483 8685153
0.044286534 0.094743803 0.32243413 6446650
0.057645384 0.095194228 0.32372212 8289885
0.059328288 0.095105194 0.32373053 7632209
0.061329693 0.095281191 0.32359794 8355676
0.063110888 0.095079444 0.32351425 8948335
-0.019262537 0.097768217 0.32256603 2171918
0.041116256 0.096913733 0.32369152 6973766
0.042633243 0.096739598 0.32391065 5920817
0.055037424 0.096986286 0.32308543 7500624
0.057460368 0.097073652 0.32283151 8158298
0.059416279 0.097000122 0.32264316 8355933
0.061268818 0.097099386 0.32254186 8487520
0.062795937 0.096410669 0.3226161 8158558
0.0644968 0.097573817 0.3234055 8093528
0.066446483 0.097815834 0.32372698 8685147
0.068292767 0.097795106 0.32366136 9014625
0.071070544 0.097780339 0.32379308 9540713
-0.020245563 0.099000633 0.32274005 2764055
0.037463605 0.099675208 0.32326365 7828819
0.03936433 0.098200485 0.3236765 7631953
0.041343112 0.099089541 0.32332429 7961683
0.042959906 0.098828271 0.32343179 6710589
0.044612795 0.098347284 0.32366431 6974018
0.046828333 0.098791659 0.32393125 7040068
0.050974723 0.098811164 0.32381549 7106118
0.052833036 0.098873839 0.32296649 7369292
0.054699481 0.098536253 0.32251367 7698002
0.062599465 0.098657757 0.32304817 8619870
0.064823501 0.098773085 0.32305247 7105861
0.066308089 0.098277278 0.3231492 9738351
0.068271756 0.098309971 0.32306585 9475690
0.071044937 0.09827888 0.32296735 9475177
0.033413015 0.10189097 0.32326245 7631955
0.035659533 0.10024701 0.32289055 7566160
0.038811538 0.1006889 0.32363069 6580801
0.040346164 0.10009413 0.32349759 6711616
0.045471817 0.10013773 0.32333872 7105861
0.046869706 0.10014965 0.32329535 7171909
0.048981179 0.10055594 0.32339957 7172166
0.051315237 0.10058579 0.32266036 7435084
0.052813619 0.10092593 0.3220605 7698258
0.05594027 0.10140356 0.32355115 10330229
0.058261257 0.10154166 0.32342681 8223566
0.060148969 0.10087486 0.32368016 10198898
0.063043326 0.10133488 0.32345325 9080419
0.064528875 0.10023823 0.32309464 9935985
0.066543296 0.10055602 0.32295457 7895632
0.068315685 0.10078602 0.3224172 7895630
0.070388697 0.10005178 0.32216665 9804652
0.031451799 0.1029986 0.32355008 8027225
0.032174163 0.10377878 0.32206354 7303503
0.039647691 0.10307629 0.32324436 7304779
0.040824249 0.10309482 0.32332495 7962196
0.042535055 0.10210489 0.32324758 6974531
0.044641607 0.10212281 0.32318223 7303238
0.04674818 0.10214073 0.32311693 7500873
0.04925577 0.1029432 0.32261863 7435082
0.050690863 0.10236802 0.32221192 7632720
0.055184726 0.10290026 0.32335818 8092238
0.056246571 0.10237943 0.32321304 6973244
0.05841738 0.10384864 0.32299095 7631174
0.060491692 0.10318 0.32324088 7171133
0.062431093 0.10283557 0.32333383 7303488
0.064168118 0.10227406 0.3226985 8027471
0.066367529 0.10214598 0.3221727 8618841
0.029429134 0.10501488 0.32372928 9342311
0.030767241 0.10547763 0.32267904 7764824
0.038674083 0.10433418 0.3234506 6844230
0.043022335 0.10509664 0.32295111 8356698
0.044680186 0.10438242 0.32273281 8488025
0.046615079 0.10411438 0.32269996 8290902
0.048223402 0.10436987 0.32252818 7435593
0.054843117 0.10542199 0.32353234 7565124
0.05659733 0.1041235 0.32310906 7104315
0.062328521 0.1045681 0.32301232 8093006
0.064294621 0.10428474 0.32224923 8225105
-0.12365061 0.10736733 0.32369357 12106611
0.025347369 0.10722661 0.32249007 10198398
0.027282381 0.10705667 0.32365265 9276518
0.02958009 0.1068853 0.3225216 8882019
0.036668696 0.10659624 0.32382971 5987894
0.038305175 0.10649852 0.32362282 6448958
0.040618561 0.10627452 0.32295755 6777663
0.042246971 0.10610294 0.3231149 7962453
0.045233928 0.10708966 0.32245332 9212004
0.046565436 0.10659464 0.32234299 9015395
0.055103555 0.10729138 0.32341772 7236159
0.05655032 0.10640367 0.32266331 7894345
0.058331784 0.10620715 0.32252753 8026189
0.060102705 0.10605709 0.3225311 7960652
0.062177245 0.10611445 0.32241631 8093007
-0.1267789 0.10888734 0.32287413 8486473
-0.12550175 0.10831519 0.32321346 12369016
-0.12264202 0.10846183 0.32277888 12172418
-0.12159819 0.10836868 0.32317594 8422240
4.1237101e-05 0.10995053 0.32362366 10986384
0.021267474 0.10941073 0.32268292 5789753
0.023034237 0.1086828 0.32283309 6842186
0.024254421 0.10951905 0.32242 7566421
0.026679775 0.10927573 0.32248944 8882017
0.034648549 0.10829071 0.3239893 5790001
0.036558069 0.10907587 0.32347324 5592622
0.038065836 0.10807587 0.32328731 5592878
0.040349066 0.10907359 0.32288107 5856048
0.042489596 0.1090918 0.32281473 6777409
0.044221219 0.10809379 0.3226229 8817247
0.052966796 0.10932323 0.32369322 7106369
0.05452209 0.10826755 0.32291192 9276508
0.056872614 0.10804351 0.32319301 10066275
0.063524053 0.10909852 0.32399833 9211498
0.066864341 0.1097132 0.32360461 9803130
0.069264039 0.10979648 0.32260925 8750704
0.07029473 0.10803521 0.32242417 7960427
-0.12350977 0.11001876 0.32376647 12040828
0.0019560438 0.11035951 0.3238304 11118992
0.0024204748 0.11126582 0.32275906 9999746
0.017027965 0.11132942 0.3233057 9210727
0.018967479 0.11144935 0.32256609 6776132
0.020846238 0.11047787 0.32244262 5198129
0.0324561 0.11030703 0.32377443 5592880
0.03499056 0.11074349 0.32333693 8750178
0.036372401 0.11106528 0.32328066 5592622
0.039011911 0.11071257 0.32263631 6711357
0.040651187 0.11104965 0.32243285 6842173
0.042808797 0.11131936 0.32254717 7435335
0.044844262 0.11076038 0.32238775 7303750
0.046586033 0.11149156 0.32308349 8356433
0.048175666 0.1113801 0.3228519 8093006
0.050770249 0.11114817 0.32295188 7961421
0.052653864 0.11044721 0.32243139 7829835
0.065917566 0.11105946 0.32314825 10001018
0.067510784 0.11160535 0.32230216 9606259
-0.088309005 0.1132457 0.32211715 6314024
-0.087524891 0.11273549 0.32214838 7500090
0.0016999594 0.11373688 0.32348347 11119246
0.0031081578 0.11281225 0.32344347 10197628
0.0045591593 0.1128363 0.32294253 10395002
0.00643097 0.11273441 0.32294062 10197878
0.0085293725 0.11293064 0.3232106 10329722
0.010567894 0.11316666 0.32314581 10067062
0.012464355 0.11322048 0.32294828 10330493
0.014947993 0.11342576 0.3228119 10461824
0.017188301 0.11301073 0.32321617 10001018
0.018757576 0.11343539 0.32307786 8816486
0.020571448 0.11329147 0.32332218 7895380
0.022641204 0.11306754 0.32339025 7237193
0.024879027 0.11295606 0.32346413 7303499
0.026774649 0.11322977 0.32345605 7237963
0.02848883 0.11251744 0.32375935 5855794
0.030291481 0.11343768 0.32304376 5198124
0.032439459 0.11264152 0.32323295 8421727
0.034424551 0.11294331 0.32266885 8421211
0.036466993 0.11263345 0.32242519 7369801
0.038675975 0.11278331 0.32287517 7435335
0.040327106 0.11370398 0.32253277 8159053
0.04223787 0.11279467 0.32270628 8949077
0.060761407 0.11304393 0.32357907 9341547
0.065993652 0.11372981 0.32212341 9277035
-0.089308709 0.11543837 0.32287726 5918500
-0.0086246813 0.11584285 0.3239347 6776391
-0.0066158911 0.11585759 0.32393616 6973517
-0.0025129155 0.11581203 0.32343563 12106143
-0.00076387939 0.11523598 0.32327712 12500391
0.00099844986 0.11444304 0.32358611 11250063
0.0073381076 0.1154554 0.32314277 9539682
0.0086418334 0.11490357 0.32260227 9934701
0.010738507 0.11468646 0.32337683 8684642
0.01277781 0.11527929 0.32327795 8947820
0.014514171 0.114936 0.322898 9474160
0.01641427 0.11448373 0.32301289 9277547
0.018369321 0.11455232 0.32256204 8356189
0.020829551 0.11505872 0.32294652 5987387
0.02267614 0.11464705 0.32256308 5461039
0.024843067 0.11457761 0.32224488 6513729
0.026670877 0.11473688 0.32262418 5987640
0.028477583 0.11448906 0.32290721 5856313
0.030915327 0.1151422 0.32259744 7764310
0.032303557 0.1146897 0.32239437 8948584
0.034095094 0.11404411 0.32240772 5856304
0.036064625 0.11403447 0.32251301 8027729
0.038430523 0.11404645 0.32297066 7566920
-0.092627212 0.1178277 0.3235538 6181925
-0.090920947 0.11680358 0.32349762 7563065
-0.0045892345 0.11681531 0.32384971 7170382
-0.0033292589 0.11703688 0.32353103 7039308
-0.0013694069 0.11722036 0.3232609 9736311
0.0010329071 0.11721557 0.32315171 8486239
0.0032039396 0.11666342 0.32374474 10001014
0.0053369403 0.117213 0.32334805 10264185
0.010455622 0.11690206 0.32355064 9473660
0.013597443 0.11748689 0.32330525 9672556
0.01870019 0.11728244 0.32251996 8093014
0.02189851 0.11731968 0.32202893 7171403
0.02553096 0.1175345 0.32200184 7237699
0.026966982 0.11617932 0.32260886 4737829
0.0284505 0.11644506 0.32259628 5396014
0.030194785 0.11614563 0.32235745 7304269
-0.094481558 0.11986002 0.32398695 5656608
-0.093622938 0.11883818 0.32335049 4603159
-0.0024111876 0.11806971 0.32314798 7894107
0.0073971432 0.11829028 0.32313293 11119753
0.009248103 0.11861265 0.32332897 10330747
0.011215678 0.11868186 0.32325092 10396793
0.012607981 0.11875317 0.32302907 9935729
0.015765198 0.11915383 0.3225897 9211495
0.017230786 0.11864913 0.32311636 8817249
0.025140032 0.11929236 0.32202303 6908482
0.02755164 0.1182758 0.3221584 8093006
0.029365845 0.11926004 0.32215005 7960394
0.03109479 0.11913896 0.32236564 7367739
0.032790087 0.11911543 0.32232562 8024644
0.034485385 0.11909191 0.32228559 9536602
-0.094391949 0.12085729 0.32387558 3550220
0.0092743021 0.12039627 0.32292318 9869440
0.011286784 0.12062176 0.32236636 9803386
0.013228098 0.12068634 0.32282615 9606770
0.014819506 0.12044318 0.32269949 9277546
0.027967006 0.12119476 0.32319403 6513474
0.02931864 0.1208346 0.32265794 6118196
0.030956199 0.12058401 0.32226565 7302205
0.03298682 0.12061045 0.32215762 7959107
0.034687784 0.12058685 0.32211745 10128481
-0.096399009 0.12288204 0.32369792 4995858
0.027298223 0.12270555 0.32328719 7105866
0.028500393 0.12217711 0.32252252 6578753
0.040630672 0.1238049 0.3231228 7895127
0.027093353 0.12465949 0.32304689 7302731
0.037871707 0.12527972 0.32314485 7763798
0.039128207 0.12479192 0.3231343 7434577
0.025597241 0.12682796 0.32319501 7763796
0.026813852 0.12655871 0.3225694 7369294
0.03710755 0.1267546 0.32289958 6908488
-0.095155358 0.12897518 0.32273567 12697738
0.02350273 0.12926048 0.32342917 5264429
0.024838503 0.12831435 0.32312492 7304013
0.026334094 0.12820598 0.32241488 7633236
-0.097544685 0.13352162 0.32302117 12369535
-0.099212334 0.13555005 0.32318577 12434821
-0.1004489 0.13697115 0.32330927 12434568
-0.10238245 0.1388739 0.32240412 11315576
-0.10406467 0.14156988 0.32256171 8814933
0.02937929 0.14116618 0.32232222 7698511
-0.10531983 0.14308682 0.32260776 9473123
0.029618712 0.14316256 0.32227013 7303240
-0.10655867 0.14492291 0.32239968 9999466
0.02910766 0.1451814 0.32299784 5921587
-0.10890065 0.14725922 0.32272667 10657410
0.029527614 0.14666611 0.32236797 5526834
0.030097099 0.14715502 0.32214648 5723958
0.028814571 0.14919128 0.3233166 5132331
0.028916299 0.150987 0.32310718 5000746
0.027470129 0.15321818 0.32381511 4671780
0.028662013 0.15241021 0.32293388 4671779
0.025633097 0.15522882 0.32289129 4869159
0.027137548 0.15460944 0.32295886 4671778
0.028853603 0.15417589 0.32230851 4803620
-0.12210613 0.15756886 0.32325444 7500631
-0.056986094 0.15673597 0.32388607 7892047
-0.055378936 0.15676495 0.32355148 5919536
-0.05291805 0.15726584 0.32305479 5327914
-0.12037315 0.1585398 0.32302153 7369318
-0.11969824 0.15848255 0.32229856 5263686
-0.10292455 -0.078312024 0.32494426 13551532
-0.10165907 -0.078090794 0.3253223 9343071
-0.094303675 -0.079871282 0.32507122 11251836
-0.092663489 -0.078972906 0.32478416 11121276
-0.090506271 -0.078337803 0.32400066 11844734
-0.10066463 -0.076340415 0.32582188 8554833
-0.099101208 -0.077174485 0.32483399 8489298
-0.097943313 -0.076040022 0.32447204 8620630
-0.092549428 -0.077013664 0.32571223 10595189
-0.090904534 -0.077532597 0.32474655 11187322
-0.088577166 -0.076158926 0.32426184 11582079
-0.099034861 -0.074018411 0.32567704 8555088
-0.097670481 -0.074024789 0.32471853 8818007
-0.090572983 -0.075094484 0.32558739 10792306
-0.088885352 -0.075828917 0.32481158 11384699
-0.086769864 -0.075407282 0.32456285 12501898
-0.084692605 -0.074797004 0.32420141 11975551
-0.088752113 -0.073060744 0.32568058 10792563
-0.087331206 -0.073478043 0.32522187 11252857
-0.084870607 -0.07341224 0.32452404 11713149
-0.083394855 -0.073351987 0.32463431 11778686
-0.098727584 -0.071155846 0.32571 8555089
-0.097357787 -0.070997864 0.3250176 8422992
-0.095344357 -0.070090793 0.32439083 9410401
-0.088235505 -0.07079228 0.32581183 10727029
-0.08667323 -0.070800476 0.32554317 11055479
-0.085400641 -0.0715058 0.32507807 11515773
-0.083376125 -0.071641684 0.32445908 11582077
-0.080990568 -0.071774803 0.32430309 11975554
-0.079493389 -0.071338743 0.32416534 11843711
-0.096611701 -0.068495005 0.32539815 8094541
-0.095164545 -0.068232827 0.32506919 9015645
-0.093253352 -0.068321779 0.32455727 9608038
-0.088116482 -0.069190331 0.32580596 10858360
-0.086789019 -0.068517841 0.32548085 10923895
-0.084940664 -0.069379814 0.32514971 11121272
-0.082802773 -0.069803774 0.32493347 11252601
-0.080800697 -0.069925256 0.32452607 11712384
-0.079240352 -0.069548696 0.32428318 11843969
-0.095008492 -0.067152105 0.32568589 8686425
-0.093075015 -0.066470958 0.32491559 9673578
-0.09117166 -0.066298068 0.32446334 9804907
-0.087038666 -0.06695354 0.32558376 10660980
-0.085005499 -0.067063875 0.32544363 10595186
-0.083229847 -0.067003667 0.32508022 10923894
-0.080602556 -0.067351043 0.32443494 11384187
-0.07881628 -0.067773603 0.32439852 11515262
-0.07716395 -0.067673765 0.32400537 11581315
-0.093176939 -0.064870507 0.32528427 9410408
-0.091289505 -0.064318508 0.32487595 9541734
-0.08607275 -0.064830288 0.32564199 10727287
-0.084739089 -0.065367818 0.32557055 10595444
-0.082950398 -0.065494806 0.32478195 10924150
-0.080684096 -0.065729253 0.32478845 11121277
-0.078849882 -0.065614477 0.32437736 11121276
-0.076583676 -0.065265961 0.3242783 10792570
-0.092875406 -0.06215835 0.32535404 9212771
-0.091138937 -0.06226809 0.32467082 9607782
-0.089072682 -0.062543876 0.32413268 9870957
-0.084242724 -0.062941685 0.32514936 10792568
-0.082706869 -0.063126341 0.32518041 10660726
-0.080573797 -0.063473225 0.32476726 10924154
-0.078699231 -0.063288838 0.32461342 10398068
-0.076770276 -0.06333603 0.32461452 10660726
-0.075536914 -0.063279226 0.32429668 10858105
-0.093157887 -0.060006719 0.3253164 9212770
-0.09116248 -0.060743734 0.32480904 9541988
-0.088976271 -0.060447011 0.32435924 9739372
-0.086993061 -0.060357798 0.32400957 9739371
-0.084094055 -0.061139591 0.32586238 10726778
-0.082205094 -0.060709856 0.32550868 10727035
-0.081020363 -0.061412465 0.32523456 10594933
-0.078842387 -0.061238974 0.32514217 10463346
-0.076595202 -0.061119474 0.32481277 10726518
-0.075362429 -0.061198883 0.32431465 10923384
-0.092888325 -0.058331709 0.3252342 9146978
-0.090967432 -0.058266543 0.32472664 9607783
-0.089190587 -0.058466755 0.324411 9804909
-0.086988553 -0.058193788 0.32406819 9870702
-0.081275046 -0.059384365 0.32593945 10661243
-0.079095796 -0.059124105 0.3254447 10595190
-0.076521404 -0.059242338 0.32509309 10792055
-0.074885786 -0.059284244 0.32451594 10857848
-0.073095679 -0.05968222 0.32415348 11186559
-0.091085538 -0.056074064 0.3248693 9475944
-0.089141302 -0.057061814 0.3244729 9739118
-0.086907506 -0.056625709 0.32407859 9936239
-0.07897532 -0.056970932 0.32562029 10332277
-0.075043149 -0.057389636 0.32502547 11448700
-0.072917342 -0.056978714 0.32455355 10989179
-0.07084851 -0.056311011 0.32431406 11252353
-0.069179296 -0.056951746 0.32433262 11515523
-0.092844255 -0.055069469 0.32539046 9081444
-0.090371631 -0.05487838 0.3245959 9475945
-0.088996075 -0.054186523 0.32436198 9607532
-0.079501577 -0.054359999 0.32579741 10463868
-0.077304639 -0.055066727 0.32539809 10397815
-0.074632823 -0.055515788 0.32570437 10659957
-0.072611883 -0.055460084 0.32521844 11252096
-0.070896409 -0.055023514 0.32515511 10791803
-0.069081977 -0.05543587 0.32507986 10792056
-0.067232959 -0.055141021 0.32476154 11384449
-0.065084152 -0.055942509 0.32409608 11975053
-0.092762589 -0.05207042 0.32588816 9344104
-0.090729684 -0.052156746 0.32516652 9475946
-0.088751942 -0.052217126 0.32443374 9739118
-0.086842984 -0.052352965 0.32407001 10133362
-0.083167285 -0.052022014 0.32412967 9804913
-0.078592695 -0.05337609 0.32552329 10332281
-0.073075324 -0.053359587 0.32569796 11120250
-0.071109802 -0.052840315 0.32550335 10660475
-0.069651991 -0.053132717 0.32500806 10923646
-0.066612117 -0.053365983 0.32487282 11252864
-0.064589299 -0.053473368 0.32419381 12171667
-0.09061598 -0.050279599 0.3252795 9541485
-0.088735543 -0.050522067 0.3248753 9739121
-0.086788565 -0.051037773 0.32440937 10067571
-0.084758669 -0.051103257 0.32427579 9804914
-0.083724156 -0.050998274 0.32414711 10002293
-0.080465049 -0.050105281 0.32594723 10003315
-0.07122346 -0.050927512 0.32553813 10463095
-0.069046989 -0.051838305 0.32544178 10857853
-0.066786572 -0.0510404 0.32487375 11252607
-0.06510134 -0.050828833 0.3242057 12172428
-0.094689585 -0.048156392 0.32594162 9475176
-0.092756681 -0.048792202 0.32559302 9344105
-0.090937614 -0.048068851 0.32502538 9541229
-0.088725045 -0.048243135 0.32464528 9607535
-0.086741611 -0.048454318 0.32463068 9607791
-0.084563911 -0.048392743 0.32421499 9739119
-0.082713567 -0.048449434 0.32402974 10002033
-0.071429111 -0.049326148 0.32529795 10923649
-0.069377281 -0.04940708 0.32552189 10594681
-0.066689268 -0.049505629 0.32484046 11450499
-0.09484192 -0.046309236 0.32598412 9540971
-0.092728101 -0.046668611 0.32539922 9475691
-0.090601049 -0.046457402 0.32504612 9541485
-0.088725358 -0.046488896 0.32471812 9804657
-0.086682796 -0.046774879 0.32445109 10199668
-0.085022777 -0.046625681 0.32448447 10133876
-0.082660884 -0.046718039 0.32419842 10002034
-0.080924675 -0.047066793 0.32412443 9739117
-0.079979688 -0.046101488 0.32574213 10528891
-0.072585441 -0.046316646 0.32532111 10792061
-0.070994273 -0.04738722 0.32536918 10528888
-0.068839207 -0.04693133 0.32476738 10529145
-0.067525446 -0.047525816 0.32497674 10989953
-0.06531024 -0.047681261 0.32447135 12304266
-0.096693002 -0.04429011 0.32585296 9014628
-0.094474591 -0.044330645 0.3255471 9935474
-0.092602052 -0.045308575 0.32564613 9475434
-0.090641856 -0.044533707 0.32521322 9804401
-0.088628985 -0.044297107 0.32467324 10001780
-0.086359896 -0.044104729 0.32469329 10199671
-0.084599093 -0.044515543 0.32435358 10199414
-0.082910419 -0.045116697 0.32460076 10002290
-0.080754131 -0.045031056 0.32450944 10002289
-0.078589611 -0.044504143 0.3241598 10068338
-0.076605767 -0.04462105 0.32400441 10200178
-0.072793357 -0.045229681 0.32515156 10660477
-0.070465326 -0.045153983 0.32539281 10792315
-0.069044203 -0.045222491 0.32513458 10529143
-0.067396045 -0.04569155 0.32508284 10595450
-0.065383106 -0.045366477 0.32450736 11712900
-0.063923746 -0.04544824 0.32414514 11251840
-0.061481588 -0.04428225 0.32469785 11121025
-0.059585251 -0.044315763 0.32528174 11187074
-0.057809256 -0.044286855 0.3251124 11515784
-0.055531222 -0.044247717 0.3249163 11778958
-0.04978542 -0.044122748 0.32469216 12239248
-0.098365188 -0.042056818 0.32590753 8751973
-0.096612975 -0.042130075 0.3257024 9211754
-0.094698228 -0.042275202 0.32550207 10066803
-0.092507645 -0.042671923 0.32555863 9738607
-0.090753756 -0.042448889 0.32508004 10462587
-0.088536054 -0.042421363 0.32476068 10265466
-0.086679563 -0.042470589 0.3245897 10331514
-0.084637545 -0.042510055 0.32457095 9871219
-0.082567178 -0.042570066 0.32457888 10002290
-0.080703571 -0.042653181 0.32451832 9936751
-0.078623742 -0.042764232 0.3242783 10068078
-0.076352403 -0.04261389 0.32432845 10463093
-0.074270442 -0.042688418 0.32480988 10397558
-0.072351865 -0.042693049 0.32556078 10660732
-0.070450738 -0.042574253 0.32559407 10792061
-0.068584219 -0.043241322 0.32567737 10595447
-0.067110837 -0.04343174 0.3251549 10398838
-0.064938352 -0.042983275 0.32498384 10595702
-0.062993906 -0.043243587 0.32486007 10661496
-0.06112548 -0.042798229 0.32473433 10792823
-0.05944974 -0.042723302 0.32455453 11121786
-0.057781238 -0.042282637 0.32529196 12107401
-0.055725515 -0.04220074 0.32524607 12041865
-0.052783445 -0.042289529 0.32462353 10133618
-0.051478442 -0.043535568 0.32480633 11976075
-0.094497748 -0.040198233 0.32562941 10329973
-0.092507921 -0.040276635 0.32545909 10133106
-0.090400465 -0.040781807 0.3252216 10002035
-0.088436283 -0.040318064 0.32498866 10199928
-0.086421996 -0.04040432 0.32492214 9871476
-0.084501296 -0.040674768 0.32477868 9805168
-0.082745366 -0.040721137 0.32497472 9870702
-0.080441914 -0.040699538 0.3248511 9870701
-0.079016715 -0.04053276 0.32471788 10199666
-0.076368362 -0.040686462 0.32451749 10134130
-0.074386835 -0.040635273 0.3247489 10134128
-0.072824866 -0.040696386 0.32429448 10003055
-0.066182569 -0.04087247 0.32593444 10595704
-0.064308874 -0.040798672 0.32555208 10529910
-0.062623218 -0.041438498 0.32539135 10463859
-0.060846716 -0.04143272 0.32524517 10398321
-0.058854222 -0.041027594 0.32488942 10858616
-0.05712169 -0.040986426 0.32446229 11384964
-0.055661041 -0.040902164 0.32446188 12108174
-0.053129517 -0.041197345 0.32574335 12436879
-0.051963236 -0.041232903 0.32549179 11712644
-0.098550372 -0.039971847 0.32592779 8817253
-0.096918978 -0.038984209 0.32584068 9802608
-0.094445869 -0.038700126 0.32574096 10067316
-0.092409 -0.038620345 0.32560259 10330742
-0.09050633 -0.038803264 0.32562983 10002292
-0.08842814 -0.038577307 0.32537308 10134135
-0.086579241 -0.038594216 0.3251785 9805168
-0.084629022 -0.038570788 0.3251175 9870445
-0.082814932 -0.038455423 0.32512331 10330996
-0.080434218 -0.038537636 0.32508999 10133872
-0.078373305 -0.038816676 0.32469213 10068336
-0.076570556 -0.038741991 0.32475388 10331508
-0.074906044 -0.038815223 0.32462645 10002797
-0.072451949 -0.039156642 0.32446289 10068077
-0.070554212 -0.038969252 0.32453305 10331507
-0.068239972 -0.039014868 0.32455859 10529143
-0.066628464 -0.03856748 0.32465425 10529654
-0.062193226 -0.039162613 0.3257353 10530679
-0.060373854 -0.039027456 0.32561636 10595701
-0.058396619 -0.038505714 0.32533383 11121278
-0.056547333 -0.039278857 0.32507885 11056259
-0.054673895 -0.038972218 0.32506123 11648138
-0.053550631 -0.038702436 0.32435262 12173460
-0.048394639 -0.038177632 0.32455021 3881258
-0.10995819 -0.037710242 0.32598659 9145426
-0.094451591 -0.037088104 0.32586008 10264435
-0.092217349 -0.03680199 0.32583836 10396277
-0.090433776 -0.036681641 0.32565179 10067825
-0.088551641 -0.0368184 0.32576257 10068084
-0.086320788 -0.036912233 0.3254562 9804655
-0.08442755 -0.036885031 0.32516795 9870703
-0.082414076 -0.036964368 0.32499552 10133874
-0.08038646 -0.036523208 0.32520381 10133872
-0.078353673 -0.036633413 0.32505298 9805678
-0.076550692 -0.036922712 0.32495296 9937261
-0.074414283 -0.036818363 0.32516903 10002798
-0.072409526 -0.037016757 0.32515103 9870956
-0.070501924 -0.037174992 0.32504565 9870958
-0.068408296 -0.036961298 0.32530919 10463092
-0.0665038 -0.036969978 0.3248328 10331764
-0.064963862 -0.0373688 0.32418981 10332532
-0.060727488 -0.036574189 0.32473174 11319174
-0.059151366 -0.036498435 0.32489052 11121023
-0.056449555 -0.036668785 0.32584226 11385222
-0.054858111 -0.036476795 0.32560974 11450501
-0.052542981 -0.037433054 0.32479009 13094055
-0.050446112 -0.036630373 0.32453585 12568473
-0.049273718 -0.036412217 0.32549858 11252104
-0.094814748 -0.034658309 0.3257663 10396276
-0.093015946 -0.034976605 0.32572779 10988414
-0.090210631 -0.035910629 0.32592073 10659703
-0.088325374 -0.034324329 0.32584587 9607532
-0.086305216 -0.03442375 0.32569814 9870701
-0.084348045 -0.034713499 0.32576373 9739375
-0.082448408 -0.034851421 0.3256062 10068340
-0.080489717 -0.034578796 0.32530597 9936753
-0.07838396 -0.034711767 0.3252289 9739371
-0.076405048 -0.034940649 0.32542205 9804908
-0.074439354 -0.035137396 0.32519352 9738603
-0.072273634 -0.035234436 0.32485521 9409637
-0.070419446 -0.035107624 0.32427129 9410150
-0.068072222 -0.034817941 0.32564631 10397298
-0.066069655 -0.035113901 0.32503545 10594933
-0.064031795 -0.035116795 0.32452196 10397814
-0.06214644 -0.035282753 0.32442418 11647884
-0.059093107 -0.035172142 0.32447392 11778959
-0.054350402 -0.034797333 0.32592624 11779981
-0.052314594 -0.034854554 0.32560754 12042896
-0.051316079 -0.035116483 0.32520697 12240277
-0.094070263 -0.032495793 0.32593381 10528635
-0.092256725 -0.032668505 0.32582715 10594171
-0.089873388 -0.032164674 0.32594326 10199414
-0.080167986 -0.033031318 0.32599729 9542766
-0.07831689 -0.033035573 0.3258737 9739373
-0.076340392 -0.032958627 0.32590821 9607531
-0.074356422 -0.033178791 0.32547227 9410152
-0.07237339 -0.03327062 0.32512349 9344358
-0.070298046 -0.033169746 0.32460055 9541990
-0.068360098 -0.033383928 0.32405415 9673580
-0.067854814 -0.03297377 0.3259618 10397296
-0.064676479 -0.033123784 0.32472923 10529401
-0.06204851 -0.033123452 0.32522979 10989698
-0.060139567 -0.033211276 0.32529241 11516045
-0.056961786 -0.033308476 0.32471338 11515783
-0.096235812 -0.030051928 0.32582861 10329972
-0.094988823 -0.03134425 0.32560107 10396022
-0.092289008 -0.030583937 0.32597026 10396793
-0.074170783 -0.030932762 0.32589504 10330994
-0.07278762 -0.031187521 0.32544926 10068079
-0.070416242 -0.030987229 0.32532054 9739369
-0.068321027 -0.031503931 0.32481632 9805163
-0.06694819 -0.031009858 0.3250874 9476199
-0.064206019 -0.031572025 0.3246004 9936492
-0.062540784 -0.031575218 0.32497364 10331510
-0.059016928 -0.031398434 0.32579559 10923903
-0.056990508 -0.031810343 0.32528841 11187071
-0.055916138 -0.030888747 0.32559925 11121021
-0.053196233 -0.030270902 0.32477829 11449223
-0.10829046 -0.02933774 0.32596859 6974762
-0.1062381 -0.02965923 0.32583994 7172655
-0.10427067 -0.029642496 0.3257789 7303472
-0.10214259 -0.029561615 0.32584333 8817510
-0.096076749 -0.028501382 0.32591084 10461813
-0.094871581 -0.028893117 0.32579619 10658934
-0.070746303 -0.029289803 0.32554638 9541990
-0.068844371 -0.029557893 0.32520103 9541993
-0.066165984 -0.029635277 0.32502747 9410149
-0.064188987 -0.029686198 0.32484654 9410404
-0.062194981 -0.02932011 0.32484072 9541992
-0.060832661 -0.029565701 0.32452622 9805163
-0.058404487 -0.029006362 0.32440165 10265715
-0.056339305 -0.029510364 0.32432199 10068592
-0.055377342 -0.028226592 0.32402688 10397301
-0.052949615 -0.028693555 0.32562837 11449220
-0.05155417 -0.028920908 0.32456824 11512974
-0.11019419 -0.027368134 0.32575822 8881996
-0.10902104 -0.026946312 0.32525721 8421954
-0.10639436 -0.027335798 0.32564047 7106863
-0.10441185 -0.027318927 0.32557896 7829305
-0.10238744 -0.027383089 0.32565764 8749907
-0.098205112 -0.026309496 0.32577497 10461814
-0.09623228 -0.026309265 0.32571438 10462071
-0.06614437 -0.02730893 0.32577693 9673577
-0.064128526 -0.027283709 0.32559812 9673321
-0.062049374 -0.027365636 0.32542014 9607529
-0.060031518 -0.027335877 0.32523912 9805163
-0.058144927 -0.027500853 0.32503787 10068080
-0.056158379 -0.027597763 0.32491568 10067823
-0.054079533 -0.027614901 0.32471001 10593399
-0.052883454 -0.027286749 0.32426631 10394226
-0.050540011 -0.026595451 0.32525587 14209206
-0.11212702 -0.024763113 0.32509804 10658646
-0.11081704 -0.025547091 0.32515374 10132572
-0.1083894 -0.02540167 0.32509091 7238192
-0.10668596 -0.024995102 0.32563439 8815705
-0.10444063 -0.02533171 0.32541198 8553042
-0.10214515 -0.024841571 0.32555705 9276772
-0.10074387 -0.025105929 0.32547653 9211230
-0.098717488 -0.024944702 0.32562903 10658675
-0.09652622 -0.024597337 0.3255398 10066539
-0.061995842 -0.025187617 0.32593077 9739371
-0.059902869 -0.02527009 0.32575151 9805161
-0.056686271 -0.025270948 0.32566425 9870701
-0.054078765 -0.02587753 0.32530934 10527349
-0.05308561 -0.025515454 0.32547191 11052409
-0.11314011 -0.023198307 0.32502267 10724192
-0.11041485 -0.023511548 0.32421166 10657372
-0.10838722 -0.023484897 0.3241969 7960115
-0.10631281 -0.023401517 0.32498562 9012309
-0.10425353 -0.023613598 0.32519919 9539170
-0.10300295 -0.023467261 0.32530999 8552786
-0.10105833 -0.022583559 0.32558873 10526321
-0.099488556 -0.023649119 0.32543254 11250552
-0.060000181 -0.023773691 0.32590708 9739367
-0.058124155 -0.023990355 0.32575452 9739113
-0.11465766 -0.021765901 0.32532251 10396024
-0.10663994 -0.02150334 0.32562265 10853753
-0.10490606 -0.021268176 0.32542285 9473381
-0.10318041 -0.020939585 0.32500935 8749906
-0.10066399 -0.021399047 0.32424083 8947274
-0.099611633 -0.020179756 0.32505465 10262119
-0.10860056 -0.018818075 0.32578596 9211488
-0.10712964 -0.019542947 0.32556286 10393703
-0.1053473 -0.018451376 0.32541001 9408363
-0.10294757 -0.018877529 0.32556504 10066033
-0.09792769 -0.018870633 0.32573915 10593147
-0.09598501 -0.018272093 0.32581192 10263923
-0.11074176 -0.01679692 0.3257634 11381093
